ply
format ascii 1.0
element vertex 1682
property float x
property float y
property float z
end_header
0.099601 0.271043 -0.085342
0.118567 0.270461 -0.079201
0.116713 0.239012 -0.084409
0.119289 0.254640 -0.074026
0.129828 0.214829 -0.068211
0.132514 0.232283 -0.058490
0.139076 0.178912 -0.064863
0.136149 0.197283 -0.065856
0.034877 -0.316176 0.019758
0.040932 -0.281066 0.054423
0.034540 -0.334449 0.008239
0.034335 -0.301467 0.036867
0.027275 -0.268410 0.018924
0.034513 -0.243145 0.039419
0.030773 -0.287410 0.005623
0.032886 -0.256766 0.030664
-0.014197 -0.313845 -0.001573
-0.019039 -0.265474 0.026404
-0.018353 -0.342881 -0.012432
-0.017998 -0.288454 0.014166
0.002541 -0.234858 0.072525
0.008598 -0.222461 0.062134
0.010730 -0.272837 0.035051
0.010584 -0.250389 0.054517
0.081679 0.028552 -0.081993
0.085741 0.044052 -0.082405
0.083598 0.010173 -0.089646
0.094050 0.024865 -0.085428
0.067333 0.075356 -0.083558
0.076397 0.086557 -0.080249
0.072971 0.054490 -0.084256
0.080667 0.066974 -0.078757
-0.050404 0.090557 0.026477
-0.042269 0.103806 0.031571
-0.054412 0.066552 0.025684
-0.044653 0.077749 0.030247
-0.055544 0.140460 0.021127
-0.046563 0.150978 0.027519
-0.051144 0.117270 0.025130
-0.044315 0.130133 0.030611
-0.015641 -0.154976 0.037298
-0.014015 -0.146108 0.023182
-0.014960 -0.184424 0.059290
-0.016011 -0.170802 0.044301
-0.013427 -0.092481 -0.020928
-0.006697 -0.078983 -0.030554
-0.007856 -0.106730 -0.001502
-0.000151 -0.092777 -0.010098
0.012484 0.340875 -0.057129
0.016261 0.354186 -0.063852
0.010425 0.328443 -0.063809
0.027952 0.335663 -0.063195
0.013151 0.393801 -0.053037
0.022802 0.405337 -0.060471
0.009863 0.369865 -0.061039
0.022209 0.380114 -0.060285
0.088680 0.307086 -0.016012
0.106159 0.305396 -0.019446
0.111136 0.283879 -0.013033
0.117164 0.288812 -0.025122
0.070389 0.322081 -0.039467
0.090015 0.320701 -0.044421
0.090590 0.316885 -0.030195
0.107842 0.312933 -0.035964
-0.010544 -0.172993 0.076472
-0.010336 -0.160564 0.060501
-0.009715 -0.202542 0.089703
-0.013044 -0.190088 0.079266
-0.011428 -0.126504 0.025297
-0.010393 -0.118139 0.012147
-0.005769 -0.144023 0.048302
-0.004787 -0.134043 0.037279
-0.046080 -0.162444 0.028770
-0.041734 -0.155703 0.013444
-0.045911 -0.177429 0.043028
-0.039620 -0.175645 0.026927
-0.058105 -0.125183 -0.016945
-0.053049 -0.115504 -0.028892
-0.052534 -0.144169 0.003460
-0.045573 -0.133448 -0.009750
0.093851 -0.308260 0.046790
0.087550 -0.278863 0.079420
0.084230 -0.324946 0.042083
0.087185 -0.292548 0.072739
0.077936 -0.252074 0.105416
0.077516 -0.238917 0.115760
0.096216 -0.281478 0.064761
0.085340 -0.265528 0.091540
0.077300 -0.172325 0.117978
0.080330 -0.157668 0.109756
0.072314 -0.199419 0.130832
0.074040 -0.185646 0.125739
0.078236 -0.112378 0.094012
0.081606 -0.097602 0.084499
0.072885 -0.143657 0.108997
0.075899 -0.130837 0.100079
0.129124 0.061045 -0.023554
0.135010 0.069849 -0.046465
0.146379 0.037149 0.001487
0.143570 0.043155 -0.020014
0.141399 0.094466 -0.027682
0.144637 0.102276 -0.043595
0.146652 0.065461 -0.013027
0.149513 0.074942 -0.031253
-0.071388 -0.344385 0.011846
-0.073604 -0.296116 0.032816
-0.061880 -0.369377 -0.011780
-0.066251 -0.323779 0.027139
-0.068486 -0.307391 0.028680
-0.069661 -0.276683 0.054589
-0.066593 -0.317908 0.013124
-0.069366 -0.275117 0.041636
-0.100270 0.194868 -0.011693
-0.103205 0.208363 -0.019158
-0.098497 0.173731 -0.017155
-0.095860 0.185117 -0.028843
-0.112230 0.234518 -0.015667
-0.103048 0.247298 -0.017565
-0.105012 0.219246 -0.021280
-0.097488 0.230796 -0.024553
-0.103777 0.203412 -0.001207
-0.093598 0.221167 0.000487
-0.091891 0.191379 -0.006024
-0.087324 0.206425 -0.006565
-0.093517 0.261667 0.005510
-0.077862 0.266600 -0.003116
-0.091192 0.244281 0.004833
-0.077375 0.253909 0.004798
0.040167 0.452214 -0.002973
0.046619 0.451575 -0.016234
0.043346 0.430117 0.010574
0.045827 0.434961 -0.004592
0.010670 0.485886 -0.022529
0.025624 0.476999 -0.029925
0.018036 0.482494 0.003533
0.030119 0.473322 -0.010611
-0.059570 -0.073409 -0.084618
-0.049997 -0.064908 -0.097171
-0.054342 -0.089050 -0.065940
-0.046383 -0.079715 -0.080746
-0.062623 -0.033632 -0.106025
-0.050001 -0.021903 -0.113602
-0.061956 -0.053056 -0.098488
-0.050357 -0.041613 -0.108821
0.067084 0.176968 0.010722
0.071274 0.189626 0.001768
0.066255 0.160080 0.007489
0.072949 0.169765 -0.001413
0.066252 0.221128 0.016580
0.076408 0.230363 0.006670
0.066414 0.200315 0.012891
0.075192 0.211985 0.004683
0.039257 0.421830 -0.039790
0.040156 0.429646 -0.051165
0.040419 0.402325 -0.034124
0.043997 0.409896 -0.048081
0.030409 0.462972 -0.051369
0.039924 0.460490 -0.044874
0.035768 0.444540 -0.026040
0.042306 0.446952 -0.038227
0.003247 0.440728 -0.083596
0.021223 0.446460 -0.076062
0.000818 0.414039 -0.080948
0.013956 0.427960 -0.079098
0.004874 0.483598 -0.058358
0.020724 0.478807 -0.047090
0.004878 0.466039 -0.077543
0.022310 0.465972 -0.064536
0.090046 -0.143264 0.092356
0.092463 -0.131885 0.075879
0.085515 -0.166033 0.095318
0.086776 -0.155523 0.088243
0.093485 -0.085734 0.063817
0.095645 -0.072402 0.051982
0.091676 -0.116345 0.082951
0.093684 -0.100927 0.070412
-0.028483 -0.137272 -0.001544
-0.023115 -0.125540 -0.011926
-0.028876 -0.159542 0.024626
-0.025488 -0.147638 0.013426
-0.044950 -0.106527 -0.040138
-0.039245 -0.096635 -0.055551
-0.035625 -0.122608 -0.023358
-0.026875 -0.111570 -0.032751
0.020202 0.114993 -0.099344
0.030084 0.128321 -0.100429
0.021480 0.086770 -0.099901
0.030859 0.100665 -0.099689
0.017658 0.169760 -0.102902
0.027528 0.182424 -0.106057
0.021907 0.144104 -0.102731
0.031035 0.157190 -0.103212
-0.004620 0.011499 0.036436
0.008979 0.020610 0.034865
-0.002384 -0.014429 0.043506
0.006539 -0.001711 0.040149
0.002554 0.054923 0.046519
0.014632 0.065024 0.041038
0.000531 0.034237 0.041037
0.013428 0.042462 0.036885
-0.026058 -0.064681 0.061840
-0.018871 -0.054920 0.049663
-0.016759 -0.088983 0.071759
-0.014088 -0.078106 0.061911
-0.024104 -0.013863 0.042906
-0.013349 -0.001131 0.039321
-0.024206 -0.037381 0.050712
-0.012235 -0.027058 0.045415
0.002827 0.379224 0.051300
0.016358 0.394429 0.047728
0.001159 0.360621 0.040098
0.018941 0.373518 0.045522
0.004419 0.447752 0.035358
0.013376 0.452568 0.018225
0.004443 0.423474 0.034840
0.015501 0.433337 0.027161
-0.008192 -0.293800 0.046695
-0.008038 -0.264937 0.077043
-0.011439 -0.305771 0.027309
-0.009379 -0.275716 0.055564
0.008477 -0.229153 0.097038
0.006903 -0.213047 0.090633
0.009328 -0.263843 0.062340
0.007302 -0.245814 0.082176
-0.050121 0.285543 -0.090430
-0.032714 0.291266 -0.089206
-0.052118 0.266016 -0.098566
-0.038054 0.275120 -0.096261
-0.041075 0.319022 -0.067599
-0.029267 0.325959 -0.069205
-0.042228 0.302679 -0.078064
-0.025980 0.309857 -0.079395
-0.092295 0.073684 -0.022588
-0.087088 0.086523 -0.029904
-0.090198 0.055468 -0.017407
-0.087921 0.065087 -0.028933
-0.092535 0.122792 -0.024020
-0.092725 0.132935 -0.032206
-0.089093 0.099722 -0.026891
-0.086425 0.111973 -0.033584
0.134379 -0.035642 0.106037
0.134826 -0.031490 0.080585
0.160504 -0.064673 0.114663
0.172106 -0.063868 0.088780
0.146975 -0.015934 0.075728
0.151394 -0.016997 0.048124
0.167933 -0.045702 0.088097
0.173343 -0.047802 0.059582
-0.053580 -0.455998 -0.069294
-0.045974 -0.438082 -0.078418
-0.043434 -0.462131 -0.043763
-0.034203 -0.457978 -0.060993
-0.054335 -0.425962 -0.067194
-0.045906 -0.383385 -0.050552
-0.041363 -0.446299 -0.058618
-0.036372 -0.415348 -0.062963
0.091785 0.254702 -0.088955
0.107238 0.256479 -0.084477
0.095269 0.232614 -0.084838
0.105925 0.245290 -0.080457
0.112215 0.211451 -0.072995
0.117779 0.228185 -0.074250
0.118654 0.178646 -0.076709
0.123629 0.194954 -0.076989
-0.122228 0.199656 -0.052713
-0.116542 0.218187 -0.058799
-0.114516 0.184621 -0.057678
-0.111546 0.200084 -0.067084
-0.125335 0.234213 -0.068315
-0.120038 0.245789 -0.076193
-0.121039 0.210681 -0.075161
-0.113227 0.228078 -0.078871
0.051564 0.012090 0.023030
0.059440 0.024075 0.011498
0.057990 -0.006796 0.034929
0.063678 0.002458 0.022238
0.047162 0.046854 0.025872
0.055444 0.059150 0.019559
0.048562 0.029330 0.019817
0.056689 0.043114 0.010337
-0.011207 0.408999 -0.063011
-0.003127 0.423618 -0.071997
-0.007043 0.383186 -0.058699
0.001240 0.398477 -0.066137
-0.001310 0.460832 -0.063013
0.012668 0.467474 -0.061349
-0.000823 0.439889 -0.071125
0.009769 0.450683 -0.070765
0.053125 -0.433182 -0.050735
0.056086 -0.385304 -0.026332
0.051812 -0.438135 -0.016507
0.051002 -0.404638 -0.002513
0.044737 -0.389244 -0.045878
0.048648 -0.328647 -0.014676
0.047944 -0.418380 -0.059564
0.050708 -0.359441 -0.021754
0.023457 0.028059 0.034810
0.035333 0.038503 0.028140
0.023684 0.007321 0.036010
0.034777 0.017709 0.028413
0.025658 0.069290 0.044340
0.037135 0.082005 0.036977
0.027210 0.049748 0.038520
0.039995 0.060834 0.032727
-0.068115 0.061399 0.014012
-0.063490 0.075836 0.014196
-0.071103 0.034875 0.011216
-0.067485 0.049870 0.007506
-0.065607 0.115345 0.013487
-0.061373 0.128520 0.017554
-0.064972 0.090900 0.014171
-0.059475 0.103719 0.018585
0.030498 -0.144804 0.003678
0.040214 -0.140851 -0.010195
0.033599 -0.168783 0.027469
0.036279 -0.155096 0.012474
0.016390 -0.096111 -0.041692
0.021161 -0.085619 -0.056286
0.023147 -0.119824 -0.021760
0.025133 -0.107512 -0.036836
-0.041595 0.433446 0.010348
-0.037787 0.447769 0.003375
-0.036300 0.411159 0.025069
-0.033456 0.426623 0.018524
-0.025602 0.482034 -0.028003
-0.006965 0.489564 -0.028471
-0.022084 0.476587 -0.003880
-0.009149 0.486767 -0.009950
0.131874 -0.000561 0.050364
0.134798 0.000790 0.024378
0.154083 -0.032182 0.065445
0.153690 -0.031899 0.042384
0.133367 0.023939 0.025085
0.131324 0.027635 0.000260
0.148847 -0.000454 0.048123
0.153572 0.001116 0.024432
-0.072361 -0.140109 0.016335
-0.066698 -0.133712 0.001073
-0.064800 -0.164229 0.037469
-0.062599 -0.154207 0.021256
-0.083997 -0.103385 -0.014186
-0.078772 -0.098150 -0.029797
-0.077615 -0.121621 0.001021
-0.072491 -0.115111 -0.014743
0.028269 0.118277 0.038390
0.034812 0.135496 0.036121
0.024853 0.090994 0.042222
0.033959 0.105068 0.037076
0.029581 0.178720 0.030058
0.038994 0.189793 0.024682
0.029859 0.151952 0.033758
0.037368 0.166361 0.031493
0.039672 0.140884 -0.101289
0.050855 0.152394 -0.100371
0.039353 0.112897 -0.097281
0.048312 0.125559 -0.097958
0.053517 0.189417 -0.102579
0.067470 0.197380 -0.100911
0.048317 0.166256 -0.103890
0.061096 0.174510 -0.099653
-0.096680 0.226481 0.013510
-0.081632 0.240516 0.010879
-0.088810 0.207184 0.012603
-0.079313 0.222237 0.007804
-0.082119 0.299637 -0.003900
-0.065162 0.303475 -0.014497
-0.081837 0.278249 0.009477
-0.065620 0.286144 -0.000924
-0.157510 0.109709 -0.030419
-0.143744 0.116677 -0.046431
-0.131227 0.100662 -0.014702
-0.124769 0.104723 -0.034173
-0.156849 0.129220 -0.035365
-0.143629 0.138284 -0.053136
-0.132086 0.120422 -0.023397
-0.119456 0.127762 -0.040797
-0.034805 -0.183007 0.142359
-0.036612 -0.173028 0.122311
-0.037309 -0.208620 0.144471
-0.044897 -0.195812 0.139099
-0.041577 -0.145939 0.123392
-0.053780 -0.134152 0.109752
-0.043256 -0.163681 0.137358
-0.053113 -0.153935 0.121800
-0.093892 0.142637 -0.043069
-0.096715 0.151226 -0.053464
-0.093555 0.119886 -0.042829
-0.091634 0.130653 -0.050964
-0.105141 0.176345 -0.053524
-0.098876 0.193449 -0.059594
-0.096674 0.167094 -0.053216
-0.098536 0.177227 -0.063307
-0.054210 -0.180207 0.142362
-0.068948 -0.168251 0.131523
-0.057357 -0.210594 0.140769
-0.061991 -0.193673 0.137104
-0.063702 -0.137929 0.118341
-0.071775 -0.127867 0.104726
-0.056496 -0.166693 0.128462
-0.067716 -0.153696 0.118706
-0.086555 0.088082 -0.068399
-0.080657 0.100903 -0.077185
-0.087655 0.066178 -0.068916
-0.080885 0.078173 -0.075886
-0.091633 0.130260 -0.065286
-0.086813 0.142593 -0.078584
-0.086333 0.110933 -0.066578
-0.084356 0.124031 -0.077743
0.085292 0.113991 -0.013214
0.088179 0.126355 -0.021949
0.088733 0.098215 -0.015377
0.092687 0.108741 -0.025032
0.088727 0.180934 -0.022431
0.100464 0.186050 -0.029851
0.088501 0.162561 -0.025386
0.094703 0.171302 -0.035656
0.106507 -0.077256 0.011746
0.106176 -0.067599 0.000371
0.103374 -0.098750 0.031359
0.106316 -0.091166 0.019345
0.107973 -0.024063 -0.018901
0.105163 -0.014259 -0.028520
0.105540 -0.053461 -0.004209
0.105509 -0.041189 -0.013349
0.004541 0.200019 0.029020
0.014682 0.210727 0.025847
0.009744 0.180091 0.030279
0.018452 0.191939 0.024820
-0.002251 0.240252 0.022824
0.006030 0.253832 0.017316
0.001363 0.221527 0.023357
0.013428 0.232222 0.021321
0.069787 0.035069 0.004115
0.069899 0.046910 -0.006814
0.073157 0.013295 0.012898
0.075492 0.023489 0.000619
0.062123 0.076353 0.015713
0.065579 0.092300 0.009337
0.066213 0.057594 0.007191
0.068449 0.072144 0.001230
0.028071 0.408469 0.032131
0.038054 0.418075 0.019540
0.025353 0.389608 0.031744
0.040352 0.396540 0.020784
0.027766 0.461943 0.021464
0.033259 0.463338 0.006131
0.030312 0.436293 0.025494
0.037394 0.444055 0.012387
-0.071175 0.184459 0.009458
-0.069280 0.197797 0.012880
-0.065889 0.155627 0.010848
-0.064107 0.171521 0.014781
-0.074570 0.237171 0.019507
-0.068544 0.251920 0.010457
-0.074354 0.217052 0.020656
-0.064909 0.227750 0.012764
0.007153 0.111835 0.044215
0.018079 0.124875 0.039976
0.005954 0.083689 0.047443
0.015076 0.099714 0.043695
0.008374 0.153835 0.034626
0.019240 0.165980 0.032429
0.009567 0.134173 0.040338
0.020542 0.144575 0.036646
0.111992 0.278012 -0.068324
0.125678 0.277596 -0.059955
0.128353 0.242065 -0.068862
0.131896 0.251949 -0.057333
0.132186 0.233472 -0.043079
0.131285 0.248260 -0.035554
0.142438 0.200127 -0.053688
0.138364 0.217328 -0.047468
-0.036872 -0.089462 0.088998
-0.034692 -0.080683 0.076649
-0.033683 -0.117286 0.107010
-0.037637 -0.104167 0.093429
-0.045419 -0.039692 0.057785
-0.039234 -0.027765 0.050367
-0.042071 -0.063072 0.073771
-0.038283 -0.052883 0.061727
-0.085201 0.283535 -0.082517
-0.067576 0.291307 -0.086310
-0.085925 0.269636 -0.089574
-0.069711 0.276245 -0.091355
-0.073686 0.309333 -0.068462
-0.057398 0.316001 -0.069595
-0.077523 0.298491 -0.077570
-0.058107 0.302992 -0.079887
0.017363 0.336960 0.003235
0.030602 0.347466 0.000359
0.025656 0.312926 -0.000147
0.031388 0.326946 -0.009986
0.033534 0.399881 0.010940
0.042872 0.408331 0.003093
0.034956 0.384548 0.001106
0.039832 0.392068 -0.013406
-0.081434 -0.012881 -0.095717
-0.071264 -0.000009 -0.105007
-0.082843 -0.033255 -0.090781
-0.072784 -0.021695 -0.103187
-0.077526 0.031540 -0.095050
-0.065635 0.044552 -0.100309
-0.080104 0.009561 -0.097301
-0.067509 0.023816 -0.104180
0.068336 -0.088052 0.084521
0.070010 -0.074087 0.076113
0.065565 -0.117406 0.104133
0.065251 -0.101739 0.093814
0.064634 -0.033657 0.049973
0.070050 -0.021276 0.038269
0.068504 -0.060878 0.067647
0.071685 -0.047199 0.056182
-0.047415 0.379687 -0.027492
-0.043721 0.386948 -0.041333
-0.045558 0.360234 -0.020681
-0.036702 0.368332 -0.036186
-0.047616 0.435983 -0.047373
-0.039639 0.445869 -0.059960
-0.044603 0.414215 -0.046573
-0.039733 0.428787 -0.060517
-0.118664 0.251849 0.000615
-0.105277 0.265884 -0.003319
-0.112925 0.228262 0.001221
-0.103019 0.243712 -0.000703
-0.111976 0.293983 -0.001828
-0.098365 0.303861 -0.007074
-0.110584 0.277210 0.006962
-0.095336 0.287922 0.002509
-0.022565 0.227196 -0.107412
-0.009683 0.236816 -0.107656
-0.017531 0.208347 -0.105873
-0.006517 0.219590 -0.106751
-0.024533 0.265181 -0.099879
-0.010268 0.273296 -0.098803
-0.023057 0.247660 -0.103456
-0.006966 0.256561 -0.103662
-0.158497 0.106009 0.007589
-0.160737 0.112023 -0.012172
-0.132922 0.095513 0.023776
-0.122040 0.104992 0.003718
-0.153494 0.130883 -0.001479
-0.155675 0.141121 -0.017911
-0.138375 0.114479 0.007709
-0.129974 0.131380 -0.004267
0.020519 -0.167427 0.061878
0.024035 -0.152673 0.048822
0.024168 -0.192584 0.084686
0.024176 -0.178770 0.072128
0.000844 -0.105647 0.012252
0.007223 -0.095483 0.000481
0.004232 -0.121108 0.020731
0.009341 -0.114236 0.005096
-0.135713 0.262064 -0.048998
-0.127232 0.274336 -0.061027
-0.132250 0.244843 -0.055290
-0.127801 0.258840 -0.065511
-0.127181 0.293409 -0.041789
-0.109602 0.306546 -0.044067
-0.126006 0.278270 -0.045624
-0.118416 0.291880 -0.055861
-0.141741 0.223360 -0.028288
-0.129282 0.239752 -0.034202
-0.132367 0.210351 -0.016281
-0.127103 0.226521 -0.022682
-0.132420 0.279395 -0.030527
-0.121129 0.298636 -0.027787
-0.131253 0.263392 -0.012309
-0.121495 0.281620 -0.014515
0.016575 -0.068579 0.045405
0.026059 -0.056780 0.046225
0.021159 -0.096419 0.058734
0.026944 -0.081166 0.056981
0.014256 -0.016196 0.043834
0.026304 -0.006495 0.036313
0.013545 -0.044626 0.048419
0.022139 -0.030968 0.045062
-0.104126 0.180256 -0.013496
-0.103550 0.193755 -0.023176
-0.096569 0.158422 -0.021694
-0.093031 0.171779 -0.026792
-0.120753 0.194516 -0.022324
-0.119103 0.214320 -0.023808
-0.115971 0.178435 -0.024925
-0.111591 0.194426 -0.029563
0.044913 -0.460042 0.022312
0.046895 -0.444541 0.020783
0.047186 -0.454689 0.052334
0.056342 -0.442733 0.042252
0.039914 -0.422245 0.017236
0.047926 -0.394230 0.026011
0.043711 -0.432898 0.035957
0.053704 -0.415455 0.032271
0.057859 0.051079 -0.096773
0.066159 0.065454 -0.096000
0.066484 0.030925 -0.101276
0.074336 0.043803 -0.096205
0.042908 0.091866 -0.094325
0.051447 0.104111 -0.094429
0.047298 0.067184 -0.094379
0.055522 0.080730 -0.093317
0.044107 0.096248 0.030220
0.049717 0.111818 0.026700
0.048082 0.075891 0.026989
0.055603 0.090514 0.023362
0.045554 0.153064 0.027012
0.050674 0.166264 0.016814
0.044701 0.124707 0.027843
0.048500 0.140881 0.024523
-0.142415 0.157153 -0.009617
-0.135397 0.176036 -0.019917
-0.125380 0.150501 -0.005539
-0.118463 0.164764 -0.014267
-0.142081 0.187796 -0.015545
-0.143324 0.206622 -0.025253
-0.128762 0.174945 -0.007251
-0.121117 0.200746 -0.006480
-0.013730 -0.161081 0.109769
-0.015337 -0.147052 0.098866
-0.017697 -0.192619 0.119924
-0.017180 -0.178359 0.114968
-0.013312 -0.115700 0.074787
-0.011368 -0.105272 0.058362
-0.009553 -0.150976 0.088859
-0.011108 -0.135299 0.079620
0.046340 -0.180522 0.131202
0.046784 -0.166097 0.121623
0.046852 -0.209227 0.145707
0.043821 -0.194256 0.140440
0.049503 -0.124189 0.104399
0.052064 -0.110499 0.095682
0.046014 -0.149499 0.113543
0.051145 -0.135981 0.106069
0.076867 0.144487 0.007516
0.087930 0.153313 -0.002120
0.084926 0.124152 0.000895
0.088074 0.132759 -0.014140
0.080844 0.197798 -0.004049
0.086683 0.208122 -0.014349
0.084218 0.180745 -0.007545
0.083658 0.191498 -0.022080
-0.067578 -0.205003 0.127632
-0.073425 -0.190130 0.115515
-0.065378 -0.222311 0.128111
-0.069789 -0.214696 0.110929
-0.076689 -0.157662 0.108194
-0.084300 -0.150497 0.095537
-0.072788 -0.177592 0.117649
-0.079105 -0.169671 0.101342
0.031892 0.195405 -0.111311
0.043844 0.203765 -0.113341
0.036019 0.169736 -0.108842
0.045022 0.183359 -0.111386
0.060426 0.224903 -0.108281
0.073498 0.234005 -0.104765
0.059906 0.208153 -0.108487
0.074219 0.217765 -0.104893
0.036943 -0.092150 0.076832
0.040127 -0.078686 0.070973
0.037864 -0.120298 0.093918
0.040483 -0.104631 0.085916
0.032678 -0.042360 0.050587
0.039169 -0.028572 0.044611
0.033596 -0.066986 0.060670
0.041608 -0.054775 0.056729
0.058035 0.114283 -0.089471
0.065196 0.126133 -0.088837
0.061987 0.093709 -0.086952
0.070301 0.105680 -0.084759
0.062114 0.159918 -0.096751
0.071931 0.171947 -0.094253
0.056940 0.139112 -0.094517
0.069119 0.150184 -0.090672
-0.098727 -0.044104 0.035547
-0.103574 -0.039287 0.016041
-0.098454 -0.059227 0.046492
-0.102167 -0.058229 0.027960
-0.099181 -0.000649 0.010181
-0.098886 0.008363 -0.003691
-0.099491 -0.024976 0.024980
-0.099745 -0.016763 0.009104
0.080328 0.161885 -0.009284
0.091324 0.168360 -0.013995
0.083186 0.140352 -0.006690
0.094705 0.148725 -0.018451
0.099205 0.215540 -0.008213
0.108458 0.224442 -0.022857
0.095921 0.194725 -0.011686
0.099930 0.209167 -0.023755
0.084860 -0.292859 0.013727
0.088541 -0.261463 0.042326
0.084156 -0.309244 0.002410
0.086029 -0.269613 0.032642
0.074237 -0.241749 0.060092
0.073554 -0.227961 0.061885
0.077918 -0.268064 0.022505
0.077149 -0.247472 0.044357
-0.059500 0.011981 -0.108112
-0.048738 0.025369 -0.109958
-0.061883 -0.011434 -0.108024
-0.049868 0.000974 -0.113304
-0.052848 0.057756 -0.098899
-0.047426 0.075003 -0.097876
-0.052921 0.038486 -0.103148
-0.042808 0.051897 -0.106634
0.084985 0.136695 -0.054890
0.092006 0.147810 -0.060993
0.082055 0.120061 -0.060235
0.092556 0.130628 -0.065530
0.093233 0.187027 -0.054356
0.104359 0.198641 -0.058586
0.090818 0.175292 -0.058183
0.102597 0.183259 -0.062009
-0.075760 -0.158889 0.058283
-0.075705 -0.152247 0.043893
-0.067804 -0.179863 0.074614
-0.065294 -0.169912 0.057328
-0.090807 -0.121802 0.032767
-0.087326 -0.120122 0.014763
-0.082737 -0.138933 0.042367
-0.081132 -0.134116 0.026880
0.036042 -0.175342 0.117971
0.036085 -0.160143 0.108676
0.037184 -0.204634 0.130990
0.032889 -0.189810 0.126130
0.028718 -0.119802 0.077167
0.030803 -0.103280 0.070033
0.032045 -0.143509 0.100549
0.030898 -0.132425 0.088934
-0.037089 -0.009617 -0.116432
-0.023867 0.005465 -0.116203
-0.037600 -0.030443 -0.114729
-0.024709 -0.017081 -0.117859
-0.035246 0.035427 -0.106427
-0.026014 0.049654 -0.107778
-0.037566 0.012906 -0.113805
-0.025932 0.024545 -0.115279
0.116577 0.095671 -0.020706
0.119803 0.106329 -0.038510
0.129463 0.072370 -0.001111
0.127616 0.079098 -0.022269
0.132744 0.125016 -0.014815
0.142161 0.138177 -0.028576
0.136755 0.104558 -0.000891
0.146446 0.112707 -0.021561
0.060515 0.135567 0.018370
0.065170 0.148741 0.013177
0.060784 0.110048 0.018109
0.065943 0.124777 0.011227
0.051639 0.194000 0.026817
0.055943 0.206236 0.019181
0.053988 0.173118 0.027048
0.059823 0.186562 0.017201
-0.050088 -0.459173 0.040728
-0.036910 -0.448455 0.032622
-0.047113 -0.467035 0.059418
-0.031577 -0.460459 0.044230
-0.042203 -0.422376 0.020895
-0.045136 -0.391955 0.027549
-0.043655 -0.438857 0.017105
-0.043931 -0.417109 0.005839
-0.073329 0.068671 -0.083800
-0.059585 0.080555 -0.091222
-0.074868 0.049822 -0.088510
-0.064954 0.062350 -0.093823
-0.070916 0.107639 -0.086171
-0.063947 0.118300 -0.091836
-0.070641 0.089836 -0.085356
-0.061278 0.099753 -0.091241
-0.012845 0.300402 -0.085322
0.004667 0.302703 -0.084439
-0.017879 0.283761 -0.091412
-0.001139 0.291061 -0.090155
-0.010575 0.334406 -0.074408
0.008943 0.341164 -0.076525
-0.005639 0.315749 -0.077394
0.009401 0.322082 -0.077228
-0.077281 0.143251 -0.078535
-0.072217 0.154743 -0.090176
-0.074150 0.118311 -0.076932
-0.070986 0.132866 -0.087089
-0.085616 0.187979 -0.084911
-0.079860 0.199575 -0.093433
-0.078702 0.164762 -0.083945
-0.076784 0.176507 -0.092904
0.078844 -0.087078 -0.042297
0.083688 -0.077128 -0.052959
0.078863 -0.111124 -0.018391
0.083116 -0.097695 -0.029489
0.085330 -0.034431 -0.085198
0.084534 -0.018245 -0.087723
0.084342 -0.056762 -0.068882
0.091335 -0.039275 -0.072326
-0.137562 0.191837 -0.048768
-0.132602 0.200056 -0.065183
-0.130207 0.165900 -0.046017
-0.126612 0.173498 -0.062420
-0.143871 0.228720 -0.045751
-0.141035 0.241536 -0.058677
-0.142465 0.210100 -0.055762
-0.135241 0.221715 -0.066214
-0.057236 -0.379738 0.011630
-0.066110 -0.346468 0.048150
-0.055221 -0.399679 0.004571
-0.060236 -0.363959 0.033811
-0.063918 -0.345858 0.023692
-0.071880 -0.314914 0.052499
-0.055101 -0.362441 0.007482
-0.064486 -0.320723 0.039570
-0.084597 0.106357 -0.011323
-0.082062 0.119403 -0.015779
-0.084227 0.076527 -0.010651
-0.080902 0.091539 -0.012641
-0.085895 0.154249 -0.010671
-0.085701 0.168979 -0.012103
-0.084939 0.129406 -0.008993
-0.084397 0.141902 -0.015691
-0.054332 -0.253746 0.034243
-0.046949 -0.236485 0.050492
-0.049729 -0.275031 0.017309
-0.039735 -0.252764 0.041147
-0.049165 -0.195701 0.051071
-0.042847 -0.192236 0.036177
-0.045975 -0.222590 0.053251
-0.040220 -0.210206 0.046022
-0.020552 0.119071 -0.098147
-0.010910 0.132814 -0.098646
-0.017260 0.094988 -0.097134
-0.007701 0.108537 -0.098247
-0.024466 0.176656 -0.103188
-0.014110 0.188784 -0.103874
-0.018364 0.153983 -0.099169
-0.009118 0.167586 -0.099396
-0.015565 -0.066017 -0.092490
-0.003208 -0.060627 -0.103968
-0.013900 -0.075586 -0.075415
-0.000149 -0.069715 -0.088139
-0.015731 -0.032292 -0.116242
-0.003859 -0.019572 -0.119604
-0.014005 -0.049581 -0.108202
-0.002313 -0.040248 -0.114832
0.082087 0.063255 -0.064613
0.090398 0.073723 -0.061596
0.086407 0.038927 -0.067399
0.087380 0.054574 -0.071754
0.077189 0.099365 -0.062848
0.088112 0.110754 -0.065350
0.075927 0.079564 -0.068403
0.085623 0.092145 -0.067413
-0.107544 -0.009131 -0.004416
-0.108232 -0.003201 -0.019151
-0.108518 -0.027718 0.002131
-0.108362 -0.025764 -0.015004
-0.094823 0.038678 -0.018361
-0.097288 0.050162 -0.033194
-0.101168 0.020262 -0.016438
-0.102679 0.028411 -0.030933
0.033277 -0.022437 -0.121817
0.044186 -0.009677 -0.119022
0.033960 -0.044312 -0.114870
0.042594 -0.029548 -0.115313
0.028031 0.021320 -0.117623
0.040684 0.034502 -0.117018
0.030342 0.000024 -0.123004
0.041690 0.013389 -0.119076
-0.035718 -0.448325 -0.017539
-0.031389 -0.433690 -0.026612
-0.048888 -0.454786 0.012367
-0.040291 -0.442698 -0.000234
-0.032512 -0.375436 -0.026716
-0.031992 -0.315125 -0.002424
-0.027649 -0.395139 -0.042361
-0.029043 -0.341069 -0.008256
-0.039097 0.091316 -0.095327
-0.030608 0.104982 -0.097114
-0.034784 0.065026 -0.098573
-0.027874 0.079909 -0.097931
-0.040236 0.150475 -0.097630
-0.032593 0.163087 -0.101071
-0.034821 0.127309 -0.096072
-0.026671 0.140197 -0.099308
-0.022559 0.036856 0.036139
-0.008972 0.047275 0.036912
-0.021950 0.012470 0.033918
-0.012509 0.025259 0.034507
-0.014769 0.085949 0.045255
-0.004676 0.099643 0.044878
-0.019244 0.059965 0.044224
-0.005543 0.070288 0.044783
0.085877 -0.054608 0.055115
0.090888 -0.044309 0.043423
0.083228 -0.082296 0.076322
0.084180 -0.068964 0.064169
0.076598 -0.009752 0.032081
0.081824 -0.002499 0.019560
0.080020 -0.033378 0.045701
0.086112 -0.025675 0.031833
0.077752 0.156976 -0.073918
0.089520 0.168502 -0.079178
0.082108 0.137771 -0.071517
0.088263 0.152689 -0.071406
0.091543 0.216245 -0.083464
0.105510 0.222719 -0.083837
0.091795 0.194453 -0.082134
0.102357 0.204144 -0.084078
-0.086525 -0.071465 0.071601
-0.089237 -0.061557 0.060310
-0.078900 -0.097620 0.086127
-0.084834 -0.088905 0.074289
-0.083212 -0.016928 0.035279
-0.086538 -0.005469 0.024812
-0.087840 -0.044144 0.051301
-0.090861 -0.030614 0.040110
0.099066 -0.114949 0.023941
0.099402 -0.103703 0.010915
0.098879 -0.135596 0.049125
0.101705 -0.127335 0.035426
0.099084 -0.070898 -0.017802
0.104497 -0.058146 -0.022881
0.101882 -0.092049 -0.000596
0.105194 -0.080184 -0.010162
0.037384 0.242812 -0.110783
0.052153 0.252736 -0.110721
0.035749 0.220230 -0.112241
0.048430 0.233802 -0.113292
0.066716 0.261790 -0.103940
0.083955 0.267828 -0.099583
0.063753 0.243162 -0.106987
0.081224 0.249254 -0.102677
-0.099372 -0.093456 0.009522
-0.095329 -0.090546 -0.010805
-0.096061 -0.108301 0.019726
-0.090714 -0.106010 0.001755
-0.105751 -0.058432 -0.020204
-0.102307 -0.055548 -0.037394
-0.103374 -0.077565 -0.004226
-0.098638 -0.073452 -0.022054
0.054280 -0.283848 0.006659
0.058191 -0.253893 0.035713
0.051531 -0.302250 -0.001226
0.055171 -0.264981 0.021583
0.032942 -0.206919 0.055707
0.033434 -0.195526 0.047232
0.037908 -0.235100 0.054311
0.037589 -0.221236 0.057568
0.013492 -0.116237 0.059383
0.018648 -0.106616 0.050283
0.018031 -0.136670 0.073283
0.023148 -0.128987 0.060997
-0.006130 -0.079207 0.022271
-0.000214 -0.066508 0.014754
0.004796 -0.092159 0.027992
0.012520 -0.080777 0.021531
0.059420 -0.302918 0.068702
0.053074 -0.275338 0.095825
0.060480 -0.321162 0.055096
0.054384 -0.291164 0.080171
0.050493 -0.237799 0.134570
0.045637 -0.222549 0.140213
0.061365 -0.267013 0.100753
0.051716 -0.249518 0.117047
0.051443 -0.062824 0.065907
0.055477 -0.049744 0.056387
0.052134 -0.090226 0.083030
0.054489 -0.076810 0.074097
0.040033 -0.014710 0.039430
0.044367 -0.002238 0.029709
0.048931 -0.036831 0.051132
0.051886 -0.023516 0.039306
-0.043915 -0.310785 0.062601
-0.051567 -0.283863 0.090805
-0.046762 -0.326265 0.049826
-0.053900 -0.303405 0.075874
-0.034888 -0.268682 0.106839
-0.043404 -0.250760 0.123125
-0.035369 -0.296062 0.082186
-0.051844 -0.271614 0.108041
0.102045 -0.014999 -0.050035
0.100318 -0.001703 -0.054831
0.103454 -0.040447 -0.029415
0.104837 -0.026554 -0.038465
0.100064 0.012185 -0.060282
0.095761 0.024731 -0.064435
0.105131 -0.001979 -0.036117
0.101079 0.011164 -0.044828
-0.027100 -0.355658 0.012780
-0.023617 -0.330487 0.048202
-0.030889 -0.371567 0.000346
-0.025715 -0.346472 0.034549
-0.016121 -0.325871 0.035198
-0.013017 -0.295806 0.071203
-0.018381 -0.335762 0.016958
-0.014076 -0.312195 0.049479
-0.083927 -0.117568 0.093987
-0.090385 -0.115220 0.078351
-0.078628 -0.141043 0.106700
-0.086102 -0.132309 0.091066
-0.094883 -0.080684 0.060450
-0.098322 -0.077122 0.045581
-0.091196 -0.103631 0.075718
-0.093620 -0.097634 0.061707
0.089732 0.037811 -0.050923
0.091145 0.051176 -0.055245
0.098821 0.024199 -0.040831
0.100793 0.033080 -0.049606
0.080865 0.072198 -0.040740
0.089381 0.082634 -0.051883
0.085929 0.056539 -0.037715
0.090521 0.064944 -0.048292
-0.043260 0.341700 -0.016199
-0.030806 0.352371 -0.022773
-0.037314 0.323856 -0.009133
-0.027754 0.336505 -0.017231
-0.037029 0.404069 -0.001228
-0.034294 0.417356 -0.012720
-0.040162 0.381864 -0.010855
-0.034599 0.393932 -0.027844
0.070663 0.133922 -0.083494
0.076336 0.146280 -0.082472
0.075944 0.110015 -0.075749
0.079714 0.123646 -0.076257
0.071070 0.185753 -0.096375
0.083190 0.196972 -0.094022
0.076294 0.167405 -0.084921
0.085494 0.180877 -0.086663
0.041825 -0.275041 0.068727
0.038181 -0.255277 0.092567
0.040516 -0.298190 0.052241
0.038167 -0.267523 0.082284
0.031466 -0.207664 0.108150
0.023894 -0.194006 0.102148
0.027173 -0.226759 0.110659
0.020630 -0.209839 0.109656
0.011061 -0.134958 0.028477
0.013542 -0.130463 0.014783
0.007002 -0.159399 0.043740
0.011026 -0.149773 0.029632
-0.006926 -0.091401 -0.034922
0.002541 -0.079940 -0.043696
-0.007099 -0.107652 -0.018426
0.003678 -0.093199 -0.024786
0.003903 -0.125219 0.048682
0.012624 -0.114725 0.038520
0.008887 -0.146754 0.059321
0.014005 -0.137709 0.045810
-0.011013 -0.082384 -0.010001
-0.002936 -0.070887 -0.019371
-0.008126 -0.085645 0.003080
0.001123 -0.073159 -0.003885
0.087568 0.228983 -0.026642
0.102043 0.237305 -0.031381
0.081869 0.207718 -0.030277
0.088873 0.221094 -0.039459
0.110847 0.254557 -0.012289
0.121919 0.263366 -0.023520
0.112490 0.234775 -0.012624
0.121693 0.243320 -0.023607
-0.068241 -0.010923 0.037574
-0.058723 0.001215 0.031364
-0.062777 -0.034157 0.058781
-0.058746 -0.020920 0.047354
-0.057474 0.041589 0.016469
-0.048965 0.053765 0.022595
-0.063778 0.014968 0.021300
-0.052161 0.026870 0.020865
0.007668 0.244829 -0.108351
0.023934 0.255816 -0.109072
0.009944 0.226877 -0.110636
0.024327 0.236315 -0.110408
0.008330 0.280929 -0.098720
0.022159 0.290296 -0.096322
0.009330 0.264007 -0.102458
0.025030 0.273483 -0.103427
0.008441 -0.108779 -0.012863
0.014043 -0.097822 -0.024488
0.015227 -0.124363 0.001267
0.018931 -0.112835 -0.009046
-0.015757 -0.079647 -0.058092
-0.003626 -0.071236 -0.070047
-0.013038 -0.081662 -0.044858
0.000918 -0.073860 -0.056681
-0.152981 0.153574 -0.043100
-0.142457 0.162192 -0.057067
-0.134575 0.144198 -0.026612
-0.124355 0.148490 -0.045982
-0.149135 0.192287 -0.036667
-0.148870 0.206433 -0.044899
-0.148559 0.162788 -0.028121
-0.145332 0.175339 -0.043819
0.069761 -0.401634 -0.038213
0.082039 -0.344592 -0.000427
0.071200 -0.420539 -0.028503
0.074398 -0.375449 -0.002120
0.084295 -0.329132 -0.000482
0.092721 -0.284179 0.023443
0.082956 -0.352984 -0.016005
0.092758 -0.306436 0.018166
0.049887 0.025668 -0.108141
0.055933 0.041500 -0.109244
0.053190 0.004238 -0.114388
0.060334 0.019341 -0.112642
0.030565 0.066751 -0.101570
0.038991 0.081321 -0.101810
0.034672 0.045526 -0.106724
0.046563 0.057843 -0.105363
-0.032766 -0.277251 0.048702
-0.034506 -0.250538 0.076263
-0.031245 -0.300122 0.029092
-0.033305 -0.266269 0.065470
-0.029510 -0.214521 0.110675
-0.029937 -0.203211 0.093450
-0.029724 -0.244433 0.099184
-0.029332 -0.229324 0.101973
0.123415 -0.017707 0.077332
0.126748 -0.020591 0.056029
0.149000 -0.041427 0.101605
0.153034 -0.042775 0.078493
0.109624 0.005413 0.024363
0.116195 0.010062 0.002071
0.117366 -0.013804 0.044141
0.117101 -0.014030 0.023090
-0.075550 0.220390 -0.100145
-0.061949 0.231697 -0.105439
-0.067825 0.201878 -0.100819
-0.057357 0.213143 -0.105356
-0.081140 0.257001 -0.095732
-0.066603 0.263860 -0.098950
-0.078430 0.239379 -0.100327
-0.066556 0.250091 -0.102605
-0.037692 -0.087804 -0.068621
-0.027026 -0.080741 -0.083647
-0.028246 -0.098455 -0.044847
-0.024955 -0.088922 -0.061621
-0.039870 -0.054764 -0.105285
-0.027909 -0.045767 -0.112703
-0.035920 -0.070852 -0.090939
-0.025748 -0.063645 -0.102730
-0.042889 -0.374571 -0.003629
-0.043078 -0.342510 0.029324
-0.041365 -0.395504 -0.015012
-0.043060 -0.363056 0.016208
-0.039307 -0.332813 0.003768
-0.040691 -0.285703 0.034050
-0.040456 -0.357774 -0.010141
-0.040644 -0.312551 0.017723
-0.026286 0.370492 -0.061586
-0.015586 0.381473 -0.072620
-0.024550 0.346930 -0.068699
-0.009907 0.359116 -0.073894
-0.030071 0.416503 -0.055223
-0.022078 0.428707 -0.067087
-0.033001 0.387205 -0.053802
-0.027638 0.399009 -0.063655
0.090425 -0.260732 0.082044
0.082550 -0.247934 0.094972
0.092170 -0.283036 0.040415
0.086393 -0.255418 0.064509
0.080833 -0.194472 0.113345
0.081238 -0.178820 0.105098
0.077520 -0.223899 0.125528
0.079535 -0.209016 0.121895
-0.094514 0.062332 -0.046112
-0.093469 0.073805 -0.056763
-0.099813 0.044544 -0.048414
-0.096524 0.053452 -0.063335
-0.093589 0.099294 -0.043573
-0.092502 0.113552 -0.055376
-0.092457 0.080889 -0.043967
-0.090973 0.093851 -0.057332
-0.068466 -0.088387 0.093315
-0.071829 -0.080533 0.082503
-0.065240 -0.116515 0.109031
-0.071791 -0.108267 0.099230
-0.076559 -0.046286 0.059598
-0.076091 -0.030857 0.049497
-0.072605 -0.066852 0.078321
-0.075617 -0.057465 0.068299
-0.043785 0.010700 0.029273
-0.032515 0.023113 0.028143
-0.043276 -0.012602 0.039842
-0.032639 -0.001182 0.036833
-0.037149 0.063867 0.036810
-0.025738 0.075054 0.040137
-0.040828 0.038238 0.028241
-0.030484 0.051495 0.032009
-0.021756 -0.170120 0.131599
-0.023294 -0.151312 0.121073
-0.023386 -0.203437 0.140711
-0.020099 -0.187514 0.139870
-0.021154 -0.111538 0.095812
-0.022415 -0.099617 0.081882
-0.020605 -0.135381 0.109903
-0.019775 -0.126637 0.093560
-0.071904 -0.462931 0.006470
-0.059911 -0.447931 -0.004469
-0.071920 -0.474390 0.019690
-0.055158 -0.466663 0.008617
-0.050662 -0.385417 -0.035812
-0.049792 -0.315931 -0.003835
-0.050634 -0.405300 -0.049027
-0.051536 -0.349871 -0.019935
-0.095206 -0.069000 -0.041612
-0.088979 -0.064776 -0.060607
-0.090596 -0.085430 -0.029757
-0.084871 -0.079702 -0.047828
-0.097471 -0.031654 -0.067237
-0.091086 -0.025365 -0.082481
-0.096835 -0.050197 -0.056675
-0.090418 -0.044539 -0.073606
-0.101919 0.237900 -0.087102
-0.094264 0.248702 -0.092917
-0.098163 0.219933 -0.087575
-0.090421 0.233541 -0.095329
-0.116111 0.270589 -0.073328
-0.102850 0.280421 -0.077525
-0.108697 0.255740 -0.079119
-0.099614 0.265557 -0.083869
-0.018813 -0.282621 0.077461
-0.024991 -0.258857 0.103410
-0.022026 -0.299927 0.059808
-0.025585 -0.273072 0.090375
-0.030113 -0.227055 0.127902
-0.028862 -0.220070 0.137716
-0.025231 -0.247812 0.116861
-0.032830 -0.238701 0.124190
0.021428 -0.160294 0.081624
0.023440 -0.152264 0.068564
0.019099 -0.184074 0.095489
0.021541 -0.174430 0.085287
-0.005665 -0.095784 0.016476
0.004719 -0.084526 0.010646
-0.001015 -0.112657 0.031223
0.011342 -0.104949 0.022445
0.059573 -0.462861 -0.020252
0.058646 -0.457622 -0.034385
0.071665 -0.468261 0.000667
0.063334 -0.456784 -0.009195
0.048767 -0.440708 -0.066339
0.043286 -0.391553 -0.032723
0.056023 -0.442747 -0.034898
0.054220 -0.415831 -0.021012
0.072566 -0.184577 0.049654
0.076551 -0.172020 0.042280
0.071593 -0.208666 0.065408
0.073092 -0.193000 0.064287
0.076849 -0.136294 0.003929
0.079004 -0.124095 -0.007062
0.077509 -0.159205 0.030608
0.079531 -0.146226 0.019797
-0.097931 0.009041 -0.075979
-0.087991 0.020368 -0.087404
-0.097547 -0.011166 -0.074939
-0.089550 -0.001685 -0.087391
-0.090158 0.045685 -0.070346
-0.083758 0.058082 -0.080597
-0.095069 0.028558 -0.075680
-0.086128 0.041458 -0.083495
-0.140004 -0.035869 0.144098
-0.148979 -0.036254 0.118907
-0.145115 -0.049428 0.167928
-0.150305 -0.053395 0.135182
-0.120250 -0.011776 0.118609
-0.123577 -0.012712 0.090728
-0.107879 -0.020884 0.134499
-0.103869 -0.012884 0.114135
0.099293 0.204980 -0.037483
0.107816 0.214304 -0.047609
0.088070 0.187855 -0.040992
0.097914 0.197064 -0.047057
0.116853 0.213936 -0.018020
0.125239 0.225939 -0.031727
0.121260 0.188997 -0.031855
0.121222 0.207063 -0.036549
-0.051780 0.235436 0.002801
-0.037330 0.246974 0.000722
-0.049939 0.216363 0.008069
-0.034368 0.227660 0.005222
-0.049215 0.297508 -0.021698
-0.039115 0.308231 -0.026133
-0.045734 0.282851 -0.013310
-0.029345 0.292961 -0.016218
-0.034312 -0.465041 -0.024424
-0.025913 -0.452765 -0.040808
-0.031711 -0.471853 -0.003912
-0.023896 -0.467055 -0.017290
-0.030147 -0.434094 -0.067191
-0.034756 -0.381067 -0.043622
-0.030354 -0.433267 -0.044969
-0.033532 -0.411167 -0.034040
-0.166835 -0.062503 0.122937
-0.166518 -0.060998 0.097182
-0.153651 -0.065527 0.148134
-0.159218 -0.072631 0.119668
-0.163023 -0.027911 0.084506
-0.155507 -0.028421 0.061672
-0.151533 -0.053578 0.111122
-0.153284 -0.048301 0.092987
0.087435 -0.188162 0.094005
0.095406 -0.178775 0.083511
0.092706 -0.223253 0.097905
0.090949 -0.205041 0.101674
0.092106 -0.151953 0.043809
0.092856 -0.141593 0.032523
0.084254 -0.174999 0.056115
0.091133 -0.164068 0.052171
-0.012030 0.019804 -0.113591
0.000015 0.033786 -0.112832
-0.013757 -0.003918 -0.120157
-0.001609 0.009685 -0.119124
-0.017187 0.063831 -0.101077
-0.007948 0.077270 -0.100521
-0.016375 0.036769 -0.108477
-0.006491 0.050609 -0.107118
-0.104567 0.162377 -0.034257
-0.100423 0.176542 -0.039737
-0.094361 0.144999 -0.026227
-0.095117 0.156430 -0.037342
-0.119722 0.200752 -0.034994
-0.109595 0.217984 -0.041267
-0.112197 0.182153 -0.039559
-0.108746 0.199164 -0.046475
0.037155 -0.316975 0.044140
0.038553 -0.285351 0.074485
0.034284 -0.332929 0.031124
0.039516 -0.300128 0.060536
0.026323 -0.239304 0.097581
0.023758 -0.224852 0.097454
0.026096 -0.266899 0.061438
0.024787 -0.247963 0.082520
0.119463 0.115766 -0.060577
0.121217 0.133553 -0.071950
0.131188 0.087992 -0.047762
0.134050 0.103183 -0.064294
0.129400 0.146537 -0.062996
0.128796 0.166941 -0.066764
0.141968 0.123438 -0.040279
0.143492 0.138027 -0.051942
0.009967 0.046516 -0.106747
0.019950 0.060464 -0.108695
0.008867 0.021959 -0.116071
0.020567 0.036598 -0.114808
0.000686 0.089711 -0.099050
0.011250 0.103131 -0.100029
0.002509 0.063918 -0.102514
0.010854 0.077184 -0.102501
0.043997 -0.391332 -0.018786
0.051188 -0.353503 0.015676
0.039610 -0.410365 -0.018674
0.050479 -0.373396 0.014944
0.038610 -0.343542 -0.024314
0.037533 -0.295139 0.001687
0.041790 -0.371142 -0.033694
0.045975 -0.312821 -0.009234
0.088879 0.191084 -0.069347
0.103551 0.198692 -0.071866
0.083968 0.170510 -0.067001
0.095822 0.179924 -0.073928
0.082464 0.229051 -0.095118
0.093582 0.239922 -0.095282
0.077824 0.208561 -0.095663
0.090224 0.216501 -0.094040
0.062067 -0.073402 -0.076776
0.067236 -0.062476 -0.089279
0.067119 -0.085728 -0.053441
0.073721 -0.075150 -0.065713
0.055928 -0.027416 -0.112648
0.061382 -0.012051 -0.113326
0.056860 -0.057285 -0.100838
0.062003 -0.039143 -0.106196
-0.065797 -0.253643 0.083671
-0.063078 -0.235731 0.083654
-0.056649 -0.288359 0.042160
-0.059523 -0.260094 0.063621
-0.064268 -0.203070 0.079883
-0.058943 -0.192376 0.064702
-0.068253 -0.223077 0.074277
-0.057796 -0.213553 0.064647
0.100601 -0.034475 0.030797
0.106455 -0.025492 0.016038
0.100900 -0.059823 0.044867
0.104565 -0.049401 0.032598
0.088816 0.007915 0.004655
0.098737 0.015373 -0.006751
0.096308 -0.014494 0.023319
0.102625 -0.006380 0.009097
-0.079309 -0.262854 0.058592
-0.070061 -0.248660 0.053112
-0.074831 -0.281143 0.031506
-0.067488 -0.259691 0.038882
-0.068318 -0.229640 0.098078
-0.064157 -0.216117 0.088064
-0.072817 -0.246534 0.070400
-0.064608 -0.233071 0.060662
0.082133 -0.326899 0.031290
0.081264 -0.291517 0.057408
0.072585 -0.342376 0.014822
0.076140 -0.307702 0.046966
0.092225 -0.291683 0.049695
0.078151 -0.264603 0.078062
0.084568 -0.300358 0.032326
0.085707 -0.268893 0.059136
0.053297 0.313760 -0.084449
0.076848 0.311091 -0.078555
0.044444 0.300743 -0.098306
0.063446 0.305480 -0.092648
0.087154 0.315083 -0.063954
0.102239 0.311925 -0.057444
0.105122 0.298283 -0.069046
0.119105 0.298119 -0.058887
-0.048239 0.410427 0.000156
-0.043407 0.426085 -0.004310
-0.040022 0.387887 0.016312
-0.037179 0.403246 0.012203
-0.038309 0.460243 -0.003715
-0.031322 0.470358 -0.015270
-0.048155 0.441362 -0.018178
-0.043319 0.458612 -0.023146
0.112552 0.142122 -0.035567
0.118646 0.159588 -0.051801
0.115118 0.119947 -0.028865
0.119941 0.128654 -0.051014
0.139300 0.175660 -0.037416
0.135931 0.194492 -0.045260
0.135004 0.152061 -0.025544
0.141281 0.160088 -0.044811
-0.105494 0.300463 -0.059782
-0.091858 0.308821 -0.060869
-0.109919 0.287064 -0.067500
-0.094292 0.296223 -0.072207
-0.072035 0.322259 -0.040049
-0.054400 0.329434 -0.044287
-0.081584 0.318906 -0.051662
-0.064168 0.323393 -0.056117
-0.000877 0.146286 -0.099638
0.008307 0.158857 -0.100821
0.002273 0.120627 -0.099145
0.011778 0.134314 -0.098926
-0.000465 0.200953 -0.105875
0.012291 0.211021 -0.109298
0.003195 0.180622 -0.103746
0.014215 0.193172 -0.106022
0.033521 0.365318 -0.002031
0.037758 0.378135 -0.016031
0.033399 0.347744 -0.015719
0.031634 0.366039 -0.019057
0.033334 0.423713 -0.008448
0.041848 0.432311 -0.023197
0.037234 0.405398 -0.011653
0.039737 0.414286 -0.024081
0.069209 -0.371452 0.018060
0.079400 -0.342396 0.044656
0.067333 -0.389059 0.002846
0.078448 -0.358869 0.033189
0.084167 -0.342546 0.028965
0.087765 -0.310248 0.063853
0.083562 -0.352517 0.012177
0.091124 -0.323447 0.052347
0.077095 -0.399997 -0.008299
0.088974 -0.359397 0.021311
0.069255 -0.414339 -0.006751
0.082605 -0.379423 0.012439
0.085271 -0.365367 0.003533
0.094472 -0.317758 0.027987
0.081905 -0.385960 -0.013536
0.092605 -0.333655 0.012856
-0.028078 0.211120 0.028956
-0.017081 0.223856 0.022985
-0.024818 0.192868 0.029182
-0.013476 0.205653 0.027306
-0.032074 0.254054 0.014741
-0.018843 0.261044 0.011315
-0.029292 0.232064 0.019345
-0.017671 0.244162 0.017729
-0.074930 -0.180791 0.094920
-0.080262 -0.169708 0.076776
-0.072078 -0.201787 0.101671
-0.074489 -0.192595 0.090246
-0.087908 -0.139782 0.078441
-0.088198 -0.139269 0.059533
-0.079537 -0.159164 0.085470
-0.084533 -0.152647 0.069481
-0.010437 0.286837 0.008265
0.002703 0.296742 0.006952
-0.006896 0.268024 0.012730
0.005097 0.277543 0.008943
-0.009347 0.341875 0.014647
0.003086 0.356740 0.011813
-0.003537 0.319715 0.013104
0.003249 0.336407 0.016569
0.077650 -0.185719 0.082574
0.082904 -0.172188 0.075322
0.080570 -0.221266 0.092109
0.077395 -0.202117 0.093072
0.087308 -0.131314 0.047655
0.091165 -0.117686 0.036291
0.083962 -0.155969 0.066922
0.091179 -0.146208 0.060130
-0.005898 0.418309 0.049967
0.001229 0.434517 0.043746
-0.002363 0.398381 0.053760
0.010664 0.411034 0.043177
-0.002197 0.483775 0.010954
0.006356 0.487543 -0.002166
-0.003369 0.466334 0.026270
0.012369 0.473284 0.016900
-0.043702 -0.331592 -0.015677
-0.034630 -0.280173 0.015552
-0.041655 -0.361599 -0.032843
-0.040497 -0.298067 0.003274
-0.030601 -0.196935 0.061043
-0.026232 -0.186803 0.046304
-0.031074 -0.233290 0.062075
-0.028082 -0.216790 0.065529
0.038864 -0.230623 0.126486
0.033085 -0.215915 0.125498
0.042555 -0.252423 0.101484
0.039221 -0.239546 0.110094
0.032547 -0.157852 0.093138
0.032936 -0.144240 0.079665
0.031496 -0.186293 0.111457
0.029835 -0.172680 0.099097
-0.092019 0.167382 -0.067827
-0.093197 0.174975 -0.079713
-0.090689 0.147772 -0.063716
-0.088983 0.159080 -0.077051
-0.105474 0.208328 -0.076691
-0.095702 0.222567 -0.084033
-0.097927 0.190933 -0.076216
-0.091864 0.204316 -0.086604
-0.087970 0.025677 0.000822
-0.083083 0.038354 -0.003768
-0.084327 0.004991 0.017648
-0.079321 0.016913 0.011822
-0.074357 0.083741 0.003511
-0.074693 0.099582 0.002651
-0.080733 0.053639 -0.002719
-0.076809 0.067831 -0.001686
0.101636 0.230564 -0.045655
0.115373 0.236532 -0.051416
0.092036 0.216482 -0.056664
0.104037 0.228003 -0.062111
0.111621 0.296484 -0.043950
0.123378 0.292308 -0.038927
0.123247 0.270050 -0.047744
0.127406 0.273640 -0.033510
0.063306 -0.226243 0.136680
0.061077 -0.212115 0.136501
0.065735 -0.254488 0.112187
0.065520 -0.238281 0.123967
0.062314 -0.160741 0.122676
0.062360 -0.147504 0.115163
0.058957 -0.195206 0.139576
0.060962 -0.179764 0.134129
0.026051 0.220581 0.026617
0.034299 0.232482 0.021015
0.028348 0.199067 0.033286
0.038908 0.209287 0.024998
0.016544 0.267919 0.016170
0.024743 0.278303 0.011688
0.022160 0.246887 0.021150
0.030753 0.259819 0.014638
0.037464 -0.242397 0.072389
0.039366 -0.227666 0.075728
0.044339 -0.266575 0.035318
0.044718 -0.249454 0.058291
0.029473 -0.167183 0.042768
0.031130 -0.152798 0.028832
0.027909 -0.194358 0.061926
0.030430 -0.180861 0.052419
-0.065929 -0.288040 0.078055
-0.070892 -0.270872 0.082591
-0.070369 -0.303658 0.061528
-0.078700 -0.279804 0.070798
-0.061980 -0.246140 0.117876
-0.069194 -0.234063 0.115365
-0.065093 -0.265231 0.097129
-0.070558 -0.248569 0.100116
-0.148220 -0.016921 0.102175
-0.144952 -0.017158 0.074185
-0.127727 -0.037279 0.124901
-0.137309 -0.035768 0.101229
-0.155898 0.006051 0.074294
-0.153642 0.005428 0.053423
-0.133043 0.001873 0.095132
-0.128683 -0.001480 0.070589
-0.072258 -0.089778 -0.050029
-0.065745 -0.082491 -0.066380
-0.065895 -0.105820 -0.033450
-0.057744 -0.097719 -0.048947
-0.081929 -0.054110 -0.082613
-0.073315 -0.045127 -0.097096
-0.078630 -0.071975 -0.070018
-0.070633 -0.065180 -0.083718
0.090229 0.238715 0.004656
0.099551 0.245228 -0.003965
0.088112 0.215540 0.003069
0.097854 0.228272 -0.009720
0.083700 0.284026 -0.002914
0.096242 0.288804 -0.009734
0.092507 0.262511 0.002317
0.101108 0.269991 -0.009027
-0.028097 0.450628 -0.072597
-0.012670 0.459668 -0.078729
-0.029751 0.426084 -0.075506
-0.016637 0.439620 -0.082435
-0.016100 0.482934 -0.045797
0.002602 0.488821 -0.043842
-0.021957 0.467955 -0.060932
-0.010898 0.477445 -0.067730
0.096582 -0.037770 -0.050356
0.098952 -0.025350 -0.057922
0.100057 -0.056981 -0.037489
0.103509 -0.044795 -0.043346
0.090731 -0.006779 -0.083728
0.094203 0.007008 -0.078090
0.093382 -0.024165 -0.072197
0.096301 -0.009418 -0.069286
-0.141350 0.243178 -0.024268
-0.135699 0.259162 -0.031223
-0.135556 0.222960 -0.008276
-0.129023 0.242891 -0.010807
-0.106173 0.312265 -0.031919
-0.090619 0.318653 -0.039500
-0.112464 0.304815 -0.015478
-0.096245 0.311942 -0.020499
0.132790 0.045087 0.016372
0.130478 0.052865 -0.005617
0.139219 0.019883 0.041818
0.149554 0.023609 0.014465
0.139974 0.080469 0.010233
0.152885 0.089608 -0.009688
0.143686 0.058335 0.020770
0.151929 0.065876 0.001805
0.110361 0.188973 -0.040702
0.118308 0.199462 -0.049129
0.111683 0.166970 -0.035543
0.115748 0.180324 -0.050126
0.124979 0.190960 -0.018340
0.130354 0.211209 -0.026160
0.126636 0.161015 -0.024789
0.127312 0.182387 -0.030045
0.068900 -0.044525 -0.095686
0.075864 -0.029464 -0.097377
0.075712 -0.062951 -0.077741
0.079265 -0.048238 -0.083156
0.067283 0.003951 -0.104858
0.075580 0.018511 -0.099032
0.069942 -0.016135 -0.102512
0.079958 -0.003176 -0.098715
0.084240 -0.227903 0.076198
0.084473 -0.216079 0.071967
0.092031 -0.250374 0.054766
0.091375 -0.239663 0.069905
0.089622 -0.186408 0.073129
0.095798 -0.169530 0.068825
0.087472 -0.207103 0.087586
0.088712 -0.199027 0.078310
0.052919 -0.211810 0.059824
0.056511 -0.200328 0.053569
0.058440 -0.241154 0.048118
0.060697 -0.225024 0.057018
0.046605 -0.165136 0.013504
0.047210 -0.148453 -0.001442
0.043511 -0.186679 0.043945
0.045349 -0.177668 0.030184
0.084537 -0.233408 0.106144
0.081814 -0.213628 0.109454
0.083813 -0.247058 0.080726
0.084343 -0.233928 0.088056
0.109897 -0.031200 0.095394
0.119045 -0.032272 0.070853
0.139839 -0.059512 0.120006
0.142518 -0.055879 0.093825
-0.095417 -0.111112 0.056676
-0.095739 -0.109081 0.037390
-0.091289 -0.125840 0.067608
-0.091585 -0.123775 0.048816
-0.104287 -0.075231 0.031295
-0.103201 -0.075477 0.011317
-0.099692 -0.093850 0.045981
-0.099038 -0.092562 0.027345
-0.056472 0.130548 -0.093317
-0.050295 0.142724 -0.099628
