ply
format ascii 1.0
element vertex 1677
property float x
property float y
property float z
end_header
-0.052695 -0.385232 -0.048571
-0.059742 -0.447893 -0.067972
-0.046075 -0.415441 -0.064869
0.080791 0.244508 -0.103351
0.090950 0.250905 -0.107157
0.085851 0.232916 -0.099975
0.103030 0.232437 -0.098875
0.110603 0.201129 -0.092658
0.124735 0.209131 -0.099820
0.136033 0.192587 -0.087340
0.154339 0.193884 -0.092427
-0.131261 0.176737 -0.011621
-0.124650 0.187575 -0.025563
-0.121467 0.160563 -0.013819
-0.120312 0.173770 -0.023582
-0.137921 0.209094 -0.020519
-0.132918 0.222867 -0.026517
-0.138024 0.190769 -0.018467
-0.131559 0.202526 -0.030886
0.034685 0.009224 0.033341
0.045569 0.019136 0.021740
0.043588 -0.012019 0.028522
0.047470 0.001296 0.021459
0.036118 0.038630 0.039096
0.045163 0.052839 0.031892
0.035242 0.024952 0.032326
0.047340 0.037298 0.025507
-0.038727 0.368079 -0.069503
-0.031032 0.382073 -0.079877
-0.033049 0.348830 -0.065384
-0.023602 0.362212 -0.073320
-0.027861 0.424182 -0.064847
-0.015892 0.434473 -0.065383
-0.030276 0.407424 -0.070478
-0.015933 0.416023 -0.072815
0.034620 -0.443935 -0.080401
0.040180 -0.397752 -0.059542
0.048101 -0.444313 -0.045420
0.042731 -0.417462 -0.044300
0.033056 -0.393404 -0.071500
0.038612 -0.340281 -0.053101
0.032672 -0.415985 -0.082674
0.039600 -0.356561 -0.054046
0.012404 0.018180 0.047309
0.024279 0.027503 0.043257
0.009646 -0.003283 0.044759
0.020860 0.008477 0.039174
0.017673 0.062347 0.055349
0.028386 0.072044 0.049681
0.017717 0.039052 0.052420
0.029255 0.048842 0.048870
-0.071678 0.041800 0.032416
-0.067353 0.055970 0.031257
-0.077446 0.013594 0.033031
-0.073338 0.028942 0.027862
-0.070784 0.094627 0.033919
-0.066876 0.108808 0.035305
-0.069801 0.069348 0.035635
-0.063208 0.084406 0.036964
0.023220 -0.143129 -0.029120
0.031823 -0.133809 -0.042291
0.021431 -0.164850 -0.012871
0.027108 -0.154123 -0.027696
0.002532 -0.096148 -0.051951
0.013911 -0.092365 -0.061648
0.006620 -0.117702 -0.035937
0.011720 -0.108380 -0.051748
-0.054553 0.392311 0.009608
-0.050177 0.405010 0.004796
-0.048912 0.365805 0.018669
-0.044938 0.381466 0.017248
-0.042197 0.444937 -0.021660
-0.026122 0.452131 -0.026295
-0.044102 0.437402 0.003411
-0.027273 0.442549 -0.006268
0.295781 0.146763 -0.017382
0.310205 0.159589 -0.027413
0.327976 0.137555 -0.010803
0.339072 0.152588 -0.019011
0.314844 0.156922 0.009371
0.330012 0.175745 0.005828
0.349341 0.150353 0.008703
0.357122 0.167530 -0.000996
-0.073234 -0.149862 0.016326
-0.069692 -0.143299 0.003226
-0.064926 -0.173811 0.032429
-0.063551 -0.162567 0.018181
-0.085592 -0.111782 -0.006364
-0.081992 -0.102932 -0.020016
-0.080247 -0.130558 0.005546
-0.075231 -0.123068 -0.008092
0.020542 0.113799 0.044571
0.028678 0.127730 0.039765
0.021409 0.090008 0.047825
0.031435 0.101220 0.041405
0.016565 0.164760 0.029703
0.025451 0.175347 0.020092
0.020081 0.138039 0.033138
0.025489 0.151516 0.025750
0.015208 0.133036 -0.100437
0.026520 0.144844 -0.104540
0.017135 0.108372 -0.095922
0.025451 0.121396 -0.098634
0.020172 0.186630 -0.109624
0.037302 0.193746 -0.111243
0.022759 0.161081 -0.109623
0.035514 0.172872 -0.111376
-0.110052 0.162437 0.064312
-0.099637 0.176059 0.057430
-0.113681 0.125978 0.073173
-0.104218 0.143259 0.060897
-0.092380 0.253029 0.040432
-0.077771 0.256163 0.027112
-0.090898 0.233787 0.051001
-0.077248 0.243366 0.040032
-0.162518 0.078680 0.084403
-0.155811 0.082316 0.065298
-0.126870 0.069442 0.091965
-0.127992 0.071677 0.072972
-0.158778 0.099200 0.068371
-0.153097 0.105562 0.048343
-0.144062 0.081260 0.078560
-0.137384 0.093035 0.059014
-0.037541 -0.204389 0.127947
-0.047083 -0.194096 0.110515
-0.043451 -0.237449 0.117696
-0.049612 -0.217740 0.114623
-0.043585 -0.163863 0.117647
-0.050427 -0.153545 0.102388
-0.040874 -0.182781 0.123315
-0.044656 -0.173646 0.110297
-0.106322 0.118310 -0.017326
-0.103536 0.131376 -0.026981
-0.102858 0.100786 -0.016827
-0.099316 0.114152 -0.027980
-0.122526 0.155311 -0.027745
-0.117075 0.171175 -0.037269
-0.115169 0.140328 -0.024608
-0.109042 0.152299 -0.034997
-0.056669 -0.202354 0.130623
-0.065227 -0.192154 0.122410
-0.060522 -0.233272 0.123271
-0.065672 -0.216586 0.124631
-0.064620 -0.153212 0.113066
-0.073203 -0.144130 0.102060
-0.059247 -0.178544 0.117482
-0.067953 -0.169364 0.109225
-0.097356 0.068657 -0.043270
-0.091823 0.078917 -0.053780
-0.098989 0.049395 -0.043729
-0.093278 0.059972 -0.054518
-0.103369 0.105401 -0.039312
-0.097811 0.115367 -0.047249
-0.098274 0.085345 -0.042098
-0.095441 0.098204 -0.047304
0.069307 0.110964 -0.018022
0.075696 0.124736 -0.026714
0.070344 0.091135 -0.033314
0.072951 0.107182 -0.036475
0.075365 0.182856 -0.040481
0.076779 0.191329 -0.049620
0.073463 0.166426 -0.044527
0.080903 0.175729 -0.052191
0.091108 -0.078502 -0.013510
0.093818 -0.064612 -0.017534
0.093194 -0.106357 0.000930
0.093361 -0.091113 -0.007890
0.090575 -0.023501 -0.029044
0.089572 -0.010301 -0.036576
0.091893 -0.050933 -0.022615
0.093047 -0.036461 -0.027565
-0.007370 0.185826 0.032678
0.002938 0.194774 0.025559
-0.001932 0.163353 0.034227
0.005098 0.176133 0.028307
-0.015840 0.224094 0.024666
-0.006733 0.234435 0.017005
-0.011356 0.204424 0.028260
-0.000861 0.214823 0.020321
0.054749 0.028099 0.014947
0.058030 0.042056 0.004757
0.056453 0.011936 0.015016
0.060494 0.021992 0.003100
0.052543 0.070759 0.022092
0.054836 0.085998 0.016486
0.056073 0.048757 0.019045
0.057219 0.062254 0.011789
0.009875 0.367663 0.026176
0.018941 0.375950 0.011110
0.014428 0.341936 0.020752
0.018820 0.353964 0.008642
0.007877 0.413955 0.010758
0.013785 0.421158 -0.002211
0.012946 0.392553 0.010122
0.018822 0.403933 -0.001629
-0.079090 0.157253 0.025883
-0.075491 0.169660 0.028391
-0.074057 0.129667 0.029228
-0.071613 0.145720 0.028745
-0.080792 0.203822 0.043731
-0.075280 0.218699 0.029964
-0.080706 0.180910 0.038090
-0.072707 0.194212 0.033921
0.000113 0.092798 0.055477
0.011402 0.104918 0.053257
0.000033 0.069495 0.056006
0.010603 0.081868 0.054646
0.001862 0.139819 0.042848
0.011544 0.153220 0.039658
0.001764 0.118282 0.049790
0.012412 0.130010 0.046108
0.129037 0.247765 -0.085005
0.140446 0.242891 -0.075721
0.150945 0.230182 -0.085119
0.157267 0.234876 -0.067485
0.168741 0.219077 -0.086122
0.174991 0.226604 -0.069682
0.193991 0.208366 -0.085653
0.191682 0.225040 -0.066433
-0.035437 -0.102547 0.095392
-0.035945 -0.089716 0.084637
-0.033470 -0.135525 0.100692
-0.036020 -0.118652 0.092962
-0.047942 -0.048028 0.069801
-0.039333 -0.038900 0.059757
-0.042120 -0.074818 0.082469
-0.038914 -0.062277 0.071537
-0.110694 0.248869 -0.056156
-0.096854 0.258164 -0.059633
-0.112339 0.232186 -0.063369
-0.099089 0.242334 -0.067035
-0.096859 0.278402 -0.044752
-0.076608 0.283787 -0.049493
-0.105444 0.265292 -0.050181
-0.085496 0.273198 -0.058713
0.003581 0.303559 -0.005001
0.007717 0.317268 -0.008522
0.013181 0.285242 -0.012394
0.013816 0.298874 -0.017457
0.014544 0.365694 0.001869
0.017838 0.375649 -0.009193
0.015126 0.346164 -0.001028
0.016286 0.357714 -0.011371
-0.093268 -0.022288 -0.070258
-0.084072 -0.010805 -0.081303
-0.092616 -0.040654 -0.065277
-0.084800 -0.030252 -0.077799
-0.088105 0.014559 -0.069511
-0.078063 0.027676 -0.077054
-0.091590 -0.002779 -0.070491
-0.082164 0.010935 -0.080732
0.059032 -0.091526 0.057832
0.063197 -0.077469 0.051808
0.058903 -0.123735 0.068810
0.058851 -0.106479 0.060932
0.052903 -0.035872 0.040320
0.056087 -0.025120 0.030446
0.059960 -0.062159 0.047538
0.064059 -0.049323 0.038466
-0.058816 0.337855 -0.027904
-0.058034 0.348952 -0.039898
-0.060912 0.320749 -0.024678
-0.053382 0.328456 -0.038725
-0.067050 0.398793 -0.047101
-0.062364 0.408146 -0.056305
-0.061617 0.369146 -0.046391
-0.062602 0.383514 -0.057849
-0.123857 0.206875 0.044794
-0.115306 0.223018 0.045486
-0.114626 0.181466 0.063502
-0.114636 0.197485 0.053653
-0.121945 0.250997 0.037320
-0.108339 0.260745 0.029831
-0.116470 0.234825 0.047827
-0.105430 0.247677 0.043410
-0.046407 0.209108 -0.098541
-0.032355 0.215817 -0.105002
-0.044354 0.187477 -0.099376
-0.034070 0.198631 -0.103982
-0.047104 0.242456 -0.089788
-0.032265 0.250198 -0.094143
-0.045527 0.226152 -0.096132
-0.031309 0.234614 -0.101166
-0.153259 0.079360 0.117995
-0.159162 0.089003 0.105801
-0.136400 0.066670 0.126207
-0.122737 0.075655 0.109727
-0.150567 0.107817 0.099921
-0.152708 0.114476 0.083222
-0.137009 0.087002 0.114750
-0.120917 0.096507 0.096405
0.010736 -0.160446 0.017091
0.012904 -0.146940 0.004780
0.015336 -0.188874 0.035369
0.016140 -0.175267 0.022660
-0.008723 -0.101195 -0.004041
-0.003547 -0.090312 -0.015777
0.002604 -0.125513 0.003986
0.005108 -0.118130 -0.008985
-0.143796 0.220884 0.004450
-0.137684 0.230010 -0.011507
-0.144698 0.205623 0.008751
-0.141051 0.213526 -0.008570
-0.134878 0.246241 0.009873
-0.128532 0.257695 -0.004454
-0.143479 0.232412 0.010269
-0.136896 0.244490 -0.001663
-0.139772 0.193946 0.046197
-0.135785 0.202533 0.033744
-0.140516 0.172434 0.048796
-0.139603 0.179653 0.035270
-0.140057 0.240913 0.023977
-0.129759 0.255657 0.019571
-0.134647 0.221052 0.039206
-0.128906 0.235999 0.031824
0.008284 -0.080566 0.045575
0.017751 -0.064222 0.044684
0.013950 -0.101738 0.046020
0.022524 -0.088053 0.040687
0.004890 -0.028337 0.052425
0.013516 -0.017017 0.046144
0.005241 -0.057425 0.051394
0.012660 -0.041002 0.052837
-0.114593 0.109549 0.063681
-0.117030 0.115187 0.046195
-0.119567 0.089000 0.072036
-0.118017 0.096311 0.053830
-0.115217 0.170439 0.044147
-0.110595 0.187808 0.035608
-0.115382 0.132045 0.048243
-0.114826 0.148017 0.040587
0.023922 -0.474775 -0.024058
0.024597 -0.471568 -0.046604
0.039613 -0.477217 -0.001017
0.037751 -0.471077 -0.018325
0.021295 -0.459271 -0.069141
0.018695 -0.436520 -0.064882
0.031142 -0.459941 -0.029568
0.030813 -0.444938 -0.037496
0.036672 0.041863 -0.088083
0.044031 0.054474 -0.086624
0.041943 0.022307 -0.090783
0.049700 0.034352 -0.088688
0.021789 0.084583 -0.090662
0.029532 0.096898 -0.092970
0.028556 0.061674 -0.090577
0.034974 0.074021 -0.090782
0.036075 0.082949 0.039094
0.042547 0.096462 0.031508
0.037747 0.060870 0.041545
0.045148 0.075123 0.032913
0.035697 0.143640 0.030220
0.043333 0.156094 0.020090
0.036020 0.114720 0.032043
0.039106 0.130628 0.027857
-0.140383 0.121524 0.087120
-0.137531 0.128275 0.071608
-0.140045 0.101320 0.100221
-0.126140 0.112787 0.085087
-0.132017 0.166384 0.064166
-0.129156 0.181356 0.051767
-0.126207 0.137757 0.081546
-0.123455 0.153099 0.070687
-0.016705 -0.178139 0.099066
-0.018821 -0.167889 0.087103
-0.016366 -0.209102 0.099446
-0.020558 -0.192303 0.089172
-0.014166 -0.131082 0.076076
-0.013763 -0.117060 0.064254
-0.014676 -0.155340 0.080081
-0.015639 -0.144771 0.065684
0.042279 -0.200264 0.085860
0.041127 -0.183163 0.079927
0.047933 -0.232041 0.087724
0.048473 -0.216778 0.087248
0.046760 -0.134117 0.069975
0.050393 -0.120094 0.061857
0.043614 -0.160285 0.073475
0.046216 -0.146281 0.065454
0.063738 0.142165 -0.002038
0.068522 0.154668 -0.012110
0.060633 0.123613 -0.000811
0.067638 0.130216 -0.012692
0.070398 0.192691 -0.015595
0.079686 0.202476 -0.028249
0.069964 0.175254 -0.016399
0.076649 0.188068 -0.029586
-0.071149 -0.220908 0.110563
-0.077153 -0.205311 0.102309
-0.072666 -0.243228 0.091078
-0.074933 -0.228667 0.094243
-0.077638 -0.171471 0.097754
-0.084364 -0.163220 0.086511
-0.074653 -0.188990 0.106254
-0.081055 -0.184093 0.090029
0.004838 0.190999 -0.115869
0.019418 0.199937 -0.120211
0.013948 0.174614 -0.112649
0.026191 0.180206 -0.118782
0.040915 0.214358 -0.117150
0.050484 0.226642 -0.118409
0.033879 0.193909 -0.118936
0.047519 0.202138 -0.118723
0.032188 -0.093934 0.054171
0.038697 -0.078419 0.051940
0.033140 -0.120598 0.061563
0.040488 -0.107054 0.058227
0.024128 -0.045266 0.048317
0.026449 -0.028710 0.044523
0.025393 -0.072980 0.050611
0.032074 -0.056700 0.046401
0.035274 0.109057 -0.090049
0.042052 0.122033 -0.090286
0.039300 0.086665 -0.085817
0.046820 0.096424 -0.084144
0.037664 0.155935 -0.105267
0.053895 0.162765 -0.101528
0.033604 0.132370 -0.098879
0.046339 0.142365 -0.098340
-0.098286 -0.064873 0.055465
-0.102247 -0.060364 0.043457
-0.096954 -0.080974 0.059517
-0.101533 -0.077101 0.043439
-0.100721 -0.023806 0.036434
-0.101509 -0.010048 0.027297
-0.097754 -0.040979 0.047121
-0.103653 -0.037632 0.031825
0.070109 0.158557 -0.023977
0.073553 0.172612 -0.030741
0.069174 0.141026 -0.023384
0.075406 0.152941 -0.034850
0.082835 0.214568 -0.034043
0.089155 0.223999 -0.040226
0.074075 0.202378 -0.041535
0.080495 0.211866 -0.051509
0.072025 -0.304760 -0.025514
0.075294 -0.267852 -0.004081
0.066598 -0.327661 -0.039928
0.075922 -0.286581 -0.017479
0.069034 -0.241097 0.010999
0.072314 -0.227988 0.012169
0.068427 -0.273432 -0.017478
0.072216 -0.251622 -0.001042
-0.072810 0.000228 -0.080910
-0.063787 0.014920 -0.087543
-0.074719 -0.020068 -0.083819
-0.064290 -0.007465 -0.089009
-0.064971 0.046152 -0.069562
-0.058074 0.062030 -0.071753
-0.066327 0.024063 -0.074561
-0.059198 0.038076 -0.080937
0.068650 0.136586 -0.061779
0.068374 0.149942 -0.068456
0.067817 0.117851 -0.066371
0.069316 0.130833 -0.071972
0.086304 0.191518 -0.057018
0.086154 0.205990 -0.069652
0.072460 0.184869 -0.067557
0.084884 0.192337 -0.075550
-0.078149 -0.171025 0.049661
-0.075647 -0.163645 0.034309
-0.069320 -0.191355 0.061392
-0.068213 -0.183069 0.046498
-0.091004 -0.132664 0.032140
-0.087297 -0.129643 0.017406
-0.084463 -0.153770 0.041527
-0.082731 -0.146537 0.027112
0.032564 -0.174988 0.068612
0.034810 -0.160101 0.062368
0.034536 -0.213697 0.076914
0.031786 -0.195529 0.072298
0.022307 -0.121325 0.050684
0.030183 -0.108879 0.045301
0.027433 -0.145209 0.059524
0.029909 -0.133958 0.048020
-0.055430 -0.018445 -0.090776
-0.044975 -0.007836 -0.096186
-0.055961 -0.039083 -0.089347
-0.044351 -0.026036 -0.095666
-0.050968 0.024864 -0.080940
-0.042409 0.039247 -0.082405
-0.052929 0.004718 -0.088769
-0.044143 0.016409 -0.092876
0.198367 0.167810 -0.053918
0.215409 0.173725 -0.055237
0.226944 0.159026 -0.048545
0.240331 0.171331 -0.046285
0.217524 0.182298 -0.037381
0.237219 0.196372 -0.040647
0.245737 0.175011 -0.028649
0.263398 0.190104 -0.033808
0.048539 0.128776 0.018789
0.056206 0.137232 0.008900
0.048877 0.102645 0.024450
0.052843 0.115632 0.015344
0.037444 0.183610 0.021126
0.044202 0.196029 0.013094
0.036570 0.165526 0.025037
0.046653 0.175087 0.014945
-0.057732 -0.453277 0.034749
-0.040760 -0.439874 0.026099
-0.056490 -0.467663 0.056124
-0.041547 -0.456649 0.039531
-0.056946 -0.421077 0.013567
-0.053850 -0.390030 0.027088
-0.053937 -0.438119 0.010804
-0.048918 -0.407780 0.016846
-0.085066 0.046358 -0.057574
-0.076560 0.059593 -0.066826
-0.085813 0.031146 -0.064921
-0.078460 0.044517 -0.071919
-0.084938 0.088016 -0.062277
-0.078473 0.098399 -0.071969
-0.084036 0.070959 -0.063418
-0.074949 0.081079 -0.071807
-0.037634 0.271026 -0.082492
-0.018593 0.277300 -0.087967
-0.042461 0.257823 -0.090529
-0.025794 0.264408 -0.094533
-0.029406 0.304913 -0.072018
-0.012203 0.315013 -0.076590
-0.031297 0.288175 -0.078859
-0.014828 0.294918 -0.085006
-0.095813 0.118233 -0.060767
-0.087169 0.131158 -0.068888
-0.091395 0.098597 -0.058113
-0.083350 0.111205 -0.063509
-0.102488 0.159911 -0.064979
-0.095937 0.171921 -0.071241
-0.099674 0.140730 -0.063883
-0.090039 0.152095 -0.071769
0.064861 -0.081430 -0.057614
0.067275 -0.070188 -0.066361
0.066440 -0.106241 -0.039494
0.069829 -0.094696 -0.046943
0.060334 -0.032938 -0.078370
0.062525 -0.016636 -0.079008
0.065394 -0.053075 -0.072202
0.068700 -0.037181 -0.071683
-0.142844 0.144819 0.028484
-0.131556 0.156035 0.017792
-0.135403 0.126050 0.036330
-0.125600 0.139959 0.025525
-0.142470 0.187457 0.011429
-0.140619 0.196295 -0.005569
-0.144319 0.166839 0.017641
-0.138694 0.173354 0.005474
-0.060930 -0.387097 0.010996
-0.069879 -0.345688 0.033957
-0.065728 -0.401969 0.001302
-0.069820 -0.362726 0.027136
-0.068912 -0.346469 0.011040
-0.070555 -0.311254 0.026639
-0.066107 -0.373338 -0.004712
-0.065470 -0.324732 0.009834
-0.091318 0.076812 0.014210
-0.089494 0.091422 0.009801
-0.092593 0.052014 0.012463
-0.087937 0.064811 0.009159
-0.099019 0.127191 0.010479
-0.092458 0.140838 0.005533
-0.094060 0.104847 0.010699
-0.089423 0.118729 0.006614
-0.061880 -0.267320 0.018143
-0.057143 -0.247804 0.033600
-0.058478 -0.295018 0.004506
-0.049945 -0.264746 0.024882
-0.055820 -0.209829 0.037747
-0.046737 -0.203950 0.026919
-0.063357 -0.238676 0.029834
-0.049525 -0.227785 0.033972
-0.038497 0.104281 -0.086859
-0.029059 0.117882 -0.089180
-0.035959 0.079867 -0.084012
-0.026229 0.093265 -0.085370
-0.044513 0.160242 -0.094799
-0.034039 0.170564 -0.099369
-0.038928 0.137491 -0.091040
-0.030378 0.150931 -0.096146
-0.032408 -0.066195 -0.077544
-0.019889 -0.059176 -0.088233
-0.028132 -0.077932 -0.067225
-0.017153 -0.070887 -0.076971
-0.031900 -0.034856 -0.097280
-0.022377 -0.021658 -0.101564
-0.031946 -0.052224 -0.091037
-0.019604 -0.042751 -0.096757
0.058865 0.056011 -0.063176
0.067571 0.067223 -0.056618
0.063463 0.034254 -0.063595
0.068049 0.048913 -0.063039
0.054727 0.093768 -0.072432
0.062652 0.105233 -0.068145
0.058271 0.073777 -0.068319
0.064955 0.086621 -0.063419
-0.109920 -0.024978 0.019955
-0.110715 -0.014967 0.007421
-0.107335 -0.053146 0.030670
-0.110936 -0.041910 0.016271
-0.104745 0.015076 0.008112
-0.106309 0.025873 -0.005138
-0.107102 -0.003198 0.014880
-0.109589 0.005900 -0.000857
0.012487 -0.026068 -0.103873
0.022308 -0.012694 -0.105990
0.011947 -0.046953 -0.099819
0.023099 -0.034845 -0.104149
0.004221 0.012539 -0.098707
0.013322 0.026202 -0.101184
0.005028 -0.008753 -0.103076
0.013925 0.004736 -0.104828
-0.049026 -0.452253 -0.024321
-0.043561 -0.437072 -0.041149
-0.048248 -0.460064 0.003840
-0.037944 -0.449020 -0.010053
-0.030308 -0.380343 -0.022696
-0.031184 -0.323909 -0.009177
-0.032742 -0.399792 -0.037730
-0.034450 -0.352634 -0.008070
-0.056033 0.078215 -0.078742
-0.047692 0.091528 -0.081322
-0.053202 0.053339 -0.081348
-0.044474 0.067083 -0.082128
-0.059188 0.133702 -0.085380
-0.051960 0.147461 -0.089369
-0.054464 0.110348 -0.083640
-0.045982 0.122514 -0.086467
-0.028887 0.021486 0.048559
-0.016789 0.032505 0.053883
-0.030276 -0.001342 0.047491
-0.019884 0.012039 0.050307
-0.021998 0.070526 0.057149
-0.010474 0.081012 0.058400
-0.024858 0.045736 0.055220
-0.013064 0.056207 0.056929
0.074302 -0.061198 0.041183
0.078242 -0.047736 0.031444
0.074370 -0.089668 0.052894
0.077736 -0.075243 0.042583
0.059256 -0.013511 0.022531
0.063172 -0.004843 0.012441
0.069095 -0.034498 0.031901
0.071580 -0.023658 0.021725
0.055974 0.160170 -0.092242
0.072109 0.168815 -0.086694
0.055649 0.149671 -0.089298
0.068913 0.156238 -0.081665
0.071301 0.214131 -0.095566
0.086425 0.219916 -0.097057
0.069407 0.196174 -0.099335
0.081527 0.206660 -0.099007
-0.083587 -0.089824 0.079553
-0.088680 -0.080010 0.070658
-0.080097 -0.114070 0.092875
-0.084654 -0.107118 0.080531
-0.083317 -0.037523 0.056992
-0.087770 -0.025720 0.047459
-0.086570 -0.062859 0.065801
-0.089539 -0.052574 0.055197
0.086696 -0.116388 -0.005673
0.086867 -0.104639 -0.014210
0.086083 -0.135252 0.014317
0.088159 -0.125991 0.003930
0.086186 -0.067314 -0.030738
0.089231 -0.053638 -0.033557
0.085200 -0.092276 -0.022130
0.090166 -0.079729 -0.027097
0.015694 0.232585 -0.117327
0.035923 0.237687 -0.119001
0.015830 0.214970 -0.120458
0.028886 0.222372 -0.121460
0.048280 0.250720 -0.115702
0.066756 0.256618 -0.114199
0.057588 0.235980 -0.113766
0.067916 0.242876 -0.111569
-0.100062 -0.102174 0.013941
-0.096260 -0.098832 -0.001233
-0.095276 -0.117690 0.024156
-0.089585 -0.114657 0.007354
-0.108930 -0.067749 -0.004403
-0.105245 -0.063003 -0.019288
-0.105234 -0.086115 0.006023
-0.102373 -0.080452 -0.008239
0.047282 -0.292576 -0.033725
0.051923 -0.260009 -0.008910
0.045558 -0.314946 -0.040990
0.052399 -0.275232 -0.022359
0.026261 -0.210616 0.010967
0.030624 -0.200186 0.000965
0.024437 -0.234524 0.011403
0.038240 -0.223011 0.001925
0.005115 -0.118549 0.039275
0.011087 -0.106745 0.030016
0.005749 -0.143203 0.046684
0.010998 -0.132156 0.035210
-0.007990 -0.089216 0.033199
-0.004267 -0.074028 0.026244
-0.006545 -0.102824 0.032227
0.003981 -0.089319 0.022223
0.054057 -0.312865 0.026270
0.054256 -0.282032 0.053389
0.047487 -0.329787 0.015628
0.049632 -0.300856 0.037201
0.048692 -0.257273 0.073767
0.048780 -0.245876 0.083346
0.053389 -0.289780 0.044097
0.052313 -0.269851 0.064649
0.043899 -0.063454 0.050031
0.046695 -0.049193 0.043195
0.047398 -0.090979 0.056200
0.049465 -0.075578 0.046574
0.027669 -0.015137 0.042583
0.033517 -0.003303 0.033790
0.036993 -0.038915 0.042815
0.041821 -0.024647 0.036388
-0.052621 -0.317856 0.053669
-0.059632 -0.295138 0.081969
-0.050954 -0.335187 0.045633
-0.059454 -0.314076 0.068528
-0.044342 -0.279976 0.090016
-0.052619 -0.262839 0.100590
-0.054256 -0.297958 0.068892
-0.060521 -0.279101 0.091171
0.081672 -0.015716 -0.048908
0.080539 -0.001791 -0.053454
0.087207 -0.040739 -0.038127
0.087676 -0.027798 -0.043258
0.070763 0.013646 -0.054120
0.075280 0.026425 -0.057192
0.081311 -0.001539 -0.039899
0.084723 0.011362 -0.046640
-0.030443 -0.368240 0.001438
-0.027063 -0.342031 0.035752
-0.032636 -0.385179 -0.005865
-0.028530 -0.357449 0.019748
-0.027106 -0.332494 0.025611
-0.023538 -0.304088 0.058844
-0.029616 -0.345240 0.012074
-0.027559 -0.322716 0.045159
-0.083712 -0.132832 0.089318
-0.091131 -0.133243 0.072437
-0.082180 -0.152723 0.094841
-0.089851 -0.145725 0.081714
-0.093987 -0.098478 0.069865
-0.096817 -0.094720 0.055710
-0.093969 -0.118472 0.077542
-0.096876 -0.112542 0.060835
0.066544 0.034907 -0.047725
0.071521 0.046635 -0.049725
0.073433 0.018900 -0.043148
0.078926 0.031282 -0.042259
0.066934 0.068996 -0.037026
0.074230 0.080152 -0.044204
0.071900 0.050223 -0.037021
0.072915 0.062070 -0.044778
-0.054575 0.310451 -0.011738
-0.049004 0.320615 -0.020838
-0.051471 0.295424 -0.008873
-0.044846 0.303582 -0.022790
-0.057525 0.368704 -0.006573
-0.059825 0.377788 -0.017441
-0.059813 0.341266 -0.012327
-0.056371 0.353060 -0.022786
0.050483 0.132201 -0.087676
0.062281 0.140057 -0.081163
0.051783 0.108906 -0.080660
0.059752 0.121466 -0.079373
0.050729 0.187804 -0.110897
0.064022 0.197181 -0.107731
0.048641 0.173582 -0.105457
0.063375 0.180624 -0.101026
0.032915 -0.283977 0.021332
0.037428 -0.263133 0.049649
0.030746 -0.299672 0.011598
0.037180 -0.274922 0.037697
0.023998 -0.208265 0.059173
0.018721 -0.196541 0.046925
0.019863 -0.223613 0.052668
0.020983 -0.210422 0.040837
-0.014609 -0.141420 0.015733
-0.015667 -0.130466 0.005823
-0.009297 -0.165224 0.032018
-0.005870 -0.154139 0.019845
-0.020485 -0.095588 -0.025260
-0.010347 -0.084322 -0.034752
-0.020572 -0.121664 -0.010961
-0.015881 -0.107528 -0.020893
-0.005754 -0.125271 0.031629
0.003607 -0.115165 0.019736
-0.002852 -0.144963 0.032841
0.001802 -0.133614 0.018401
-0.018293 -0.085368 -0.013134
-0.011663 -0.074480 -0.022605
-0.013939 -0.090580 0.001366
-0.006424 -0.077419 -0.005573
0.097261 0.234557 -0.038741
0.112190 0.237918 -0.047331
0.088763 0.226043 -0.055515
0.102434 0.231504 -0.056177
0.100724 0.248457 -0.045945
0.119285 0.249523 -0.054163
0.121618 0.227994 -0.051050
0.137123 0.232540 -0.055075
-0.071762 -0.024056 0.053819
-0.066512 -0.012610 0.046843
-0.063084 -0.045197 0.067321
-0.062666 -0.033139 0.057107
-0.064619 0.024320 0.037686
-0.054471 0.035503 0.039030
-0.070230 0.000162 0.041893
-0.058627 0.010307 0.039312
-0.015684 0.224752 -0.108522
-0.000366 0.235212 -0.115272
-0.017437 0.207329 -0.110532
-0.000759 0.216350 -0.116285
-0.014724 0.265515 -0.104400
0.002360 0.270202 -0.108956
-0.015969 0.245999 -0.106001
0.000106 0.253975 -0.111920
-0.005644 -0.110290 -0.013000
-0.005043 -0.098441 -0.026801
-0.003481 -0.133597 -0.003556
-0.003625 -0.121044 -0.012157
-0.029056 -0.083214 -0.050041
-0.018421 -0.075427 -0.061044
-0.024227 -0.086329 -0.036752
-0.011114 -0.078387 -0.048668
-0.153039 0.124150 0.056251
-0.149344 0.132476 0.041474
-0.147558 0.108607 0.066994
-0.140202 0.117189 0.048029
-0.142163 0.157171 0.057678
-0.147364 0.160968 0.036118
-0.144534 0.140701 0.064998
-0.147051 0.145044 0.045156
0.058680 -0.417544 -0.071982
0.067633 -0.363759 -0.049986
0.057626 -0.430044 -0.055133
0.061008 -0.392610 -0.041044
0.072234 -0.347904 -0.040445
0.083553 -0.300036 -0.015199
0.074274 -0.369267 -0.039515
0.083584 -0.317750 -0.019487
0.022780 0.015217 -0.095744
0.031338 0.029806 -0.097335
0.028252 -0.002537 -0.097109
0.037846 0.010539 -0.099670
0.010073 0.059469 -0.093045
0.017779 0.071974 -0.094591
0.013680 0.037931 -0.094252
0.024004 0.048725 -0.096167
-0.037426 -0.289898 0.022294
-0.033667 -0.263387 0.042020
-0.035364 -0.307462 0.012497
-0.030514 -0.275270 0.029798
-0.035324 -0.235922 0.074822
-0.036371 -0.218819 0.072186
-0.038204 -0.263268 0.057222
-0.037758 -0.246374 0.063833
0.092807 -0.067513 0.015744
0.095111 -0.053724 0.006894
0.091121 -0.093708 0.025994
0.093675 -0.080903 0.015447
0.085587 -0.017442 -0.013142
0.090188 -0.006771 -0.022846
0.092916 -0.042639 0.000447
0.096362 -0.034979 -0.012158
-0.095058 0.195891 -0.074908
-0.084282 0.207651 -0.083224
-0.088730 0.179860 -0.078999
-0.081081 0.192271 -0.083739
-0.100305 0.227154 -0.070900
-0.088799 0.239809 -0.079918
-0.102594 0.209282 -0.070159
-0.090284 0.221731 -0.079745
-0.048907 -0.088957 -0.051436
-0.039033 -0.082106 -0.066200
-0.037300 -0.103602 -0.033588
-0.037442 -0.093195 -0.046637
-0.054814 -0.058028 -0.084711
-0.043871 -0.047131 -0.093817
-0.052692 -0.075049 -0.066581
-0.042902 -0.068167 -0.080402
-0.045938 -0.380112 0.004057
-0.045476 -0.347122 0.032241
-0.046497 -0.401741 -0.009239
-0.048692 -0.363001 0.012252
-0.046809 -0.347719 0.002937
-0.050555 -0.307576 0.024675
-0.048525 -0.372359 -0.014604
-0.047800 -0.326736 0.011899
-0.046013 0.326361 -0.052254
-0.041631 0.337588 -0.062449
-0.049614 0.306182 -0.057512
-0.037056 0.319757 -0.066202
-0.052250 0.376406 -0.050911
-0.045833 0.389842 -0.063180
-0.044425 0.350211 -0.045567
-0.045582 0.362317 -0.056645
0.076497 -0.260186 0.013032
0.078916 -0.247435 0.032806
0.079257 -0.283018 -0.003528
0.081839 -0.262253 0.026877
0.081597 -0.191457 0.056973
0.083543 -0.178525 0.044240
0.082818 -0.225980 0.064038
0.079019 -0.208634 0.059735
-0.102123 0.047637 -0.020161
-0.100659 0.058045 -0.032619
-0.105955 0.030482 -0.019752
-0.104681 0.039051 -0.032559
-0.102366 0.084618 -0.021346
-0.098593 0.095249 -0.030323
-0.099663 0.066868 -0.018094
-0.098091 0.075339 -0.029675
-0.067032 -0.105682 0.098820
-0.069887 -0.095822 0.088609
-0.066050 -0.132894 0.108228
-0.068513 -0.123299 0.098964
-0.072582 -0.057276 0.072461
-0.079192 -0.043242 0.064012
-0.070381 -0.080376 0.086213
-0.074332 -0.071007 0.076792
-0.051113 -0.005131 0.046558
-0.041053 0.006731 0.044094
-0.049934 -0.028245 0.058104
-0.040764 -0.017204 0.052748
-0.042460 0.046295 0.049292
-0.031903 0.058465 0.053269
-0.046519 0.021436 0.042579
-0.035616 0.033875 0.048573
-0.023161 -0.185512 0.118310
-0.025917 -0.167766 0.111097
-0.023406 -0.214938 0.126471
-0.023909 -0.199981 0.121264
-0.021844 -0.125472 0.092344
-0.020491 -0.114498 0.079383
-0.021250 -0.154346 0.102048
-0.019289 -0.140792 0.092696
-0.083755 -0.464523 0.003524
-0.075520 -0.455888 -0.012958
-0.074785 -0.480338 0.022098
-0.065621 -0.467110 0.013796
-0.059556 -0.392466 -0.032968
-0.061405 -0.331411 -0.010308
-0.060135 -0.409113 -0.044480
-0.061634 -0.355245 -0.023304
-0.100880 -0.075510 -0.025854
-0.096341 -0.068277 -0.041629
-0.094892 -0.093303 -0.015443
-0.091289 -0.085244 -0.029824
-0.104609 -0.037069 -0.041147
-0.100116 -0.031783 -0.056349
-0.103302 -0.057421 -0.035275
-0.098724 -0.049432 -0.050875
-0.126373 0.205443 -0.045570
-0.116541 0.215640 -0.058661
-0.122783 0.190858 -0.041998
-0.115735 0.201923 -0.055135
-0.124922 0.235054 -0.036765
-0.119310 0.249150 -0.044436
-0.127985 0.219378 -0.043370
-0.119710 0.232746 -0.050917
-0.029173 -0.291344 0.066390
-0.033816 -0.267058 0.087260
-0.033095 -0.304606 0.046138
-0.034475 -0.277101 0.072600
-0.026460 -0.241320 0.117571
-0.029713 -0.224064 0.121340
-0.029817 -0.256795 0.096637
-0.031801 -0.245061 0.101180
0.010728 -0.159803 0.042796
0.012684 -0.150464 0.028449
0.014487 -0.176639 0.048313
0.018024 -0.169767 0.035592
-0.010964 -0.096833 0.017136
-0.002460 -0.082385 0.009180
-0.012349 -0.115270 0.018071
-0.002450 -0.104575 0.006987
0.039467 -0.468345 -0.050850
0.041309 -0.465181 -0.069788
0.060451 -0.478757 -0.029451
0.060247 -0.474046 -0.050537
0.026624 -0.452313 -0.093293
0.024608 -0.406275 -0.071565
0.037721 -0.450317 -0.060905
0.040378 -0.430531 -0.056865
0.063206 -0.180280 0.001067
0.067689 -0.168177 -0.008993
0.062845 -0.209101 0.014633
0.066206 -0.195665 0.004736
0.069010 -0.127802 -0.027372
0.073322 -0.116160 -0.033343
0.066650 -0.153391 -0.016517
0.070707 -0.140692 -0.023275
-0.106740 -0.003174 -0.049737
-0.100053 0.006702 -0.062992
-0.106483 -0.018991 -0.045785
-0.101560 -0.013133 -0.059834
-0.100746 0.030298 -0.046635
-0.096698 0.040114 -0.057108
-0.104636 0.014257 -0.048676
-0.099069 0.023433 -0.059513
-0.139270 -0.067182 0.203295
-0.147375 -0.071370 0.182086
-0.125970 -0.082771 0.214940
-0.136813 -0.083376 0.197738
-0.120973 -0.038575 0.185240
-0.130394 -0.040064 0.164285
-0.099630 -0.049096 0.192198
-0.110610 -0.043236 0.175261
0.100090 0.213523 -0.058065
0.113274 0.218471 -0.065314
0.093908 0.200918 -0.062971
0.103466 0.207614 -0.074778
0.128619 0.203863 -0.053869
0.140335 0.213652 -0.048380
0.145854 0.197298 -0.054039
0.159152 0.207439 -0.046501
-0.068170 0.208068 0.022166
-0.054700 0.221504 0.016799
-0.063767 0.191059 0.021493
-0.050123 0.203614 0.020879
-0.059354 0.268624 -0.010047
-0.057470 0.280083 -0.017317
-0.057742 0.258339 0.001236
-0.044690 0.266135 -0.008668
-0.047881 -0.469018 -0.017247
-0.035574 -0.458717 -0.037440
-0.044058 -0.479492 -0.005179
-0.033189 -0.471467 -0.023555
-0.040444 -0.432485 -0.062872
-0.039777 -0.387996 -0.041803
-0.033337 -0.434173 -0.028502
-0.039063 -0.415889 -0.035973
-0.169891 -0.070601 0.192110
-0.171771 -0.070867 0.173507
-0.151010 -0.089808 0.211024
-0.164226 -0.086217 0.189606
-0.166311 -0.042908 0.165357
-0.158140 -0.037323 0.146178
-0.152831 -0.051911 0.186777
-0.154172 -0.056093 0.164513
0.081399 -0.203829 0.030110
0.085781 -0.191772 0.020577
0.082640 -0.234273 0.043430
0.080881 -0.220725 0.045236
0.081937 -0.150865 0.013126
0.084941 -0.141100 0.002872
0.078137 -0.170887 0.019794
0.086555 -0.160589 0.014083
-0.031997 0.011436 -0.092811
-0.021652 0.026299 -0.091819
-0.033795 -0.011305 -0.096988
-0.024046 0.003126 -0.100126
-0.034430 0.052918 -0.082749
-0.025730 0.066381 -0.082433
-0.034755 0.027596 -0.086969
-0.025381 0.039915 -0.085725
-0.111479 0.140935 -0.006084
-0.107684 0.152071 -0.014012
-0.102614 0.122132 -0.001468
-0.099916 0.135002 -0.009776
-0.125946 0.170512 0.010674
-0.124226 0.188142 0.001639
-0.116797 0.158038 0.001599
-0.115334 0.175604 -0.006050
0.033537 -0.320507 0.005979
0.043627 -0.289495 0.032552
0.029797 -0.338514 -0.009557
0.039596 -0.307033 0.021185
0.024920 -0.248014 0.047729
0.029486 -0.233856 0.047570
0.022919 -0.267059 0.012734
0.022636 -0.248422 0.030623
0.172137 0.177501 -0.087579
0.189892 0.186245 -0.091101
0.204349 0.161985 -0.083146
0.220832 0.176070 -0.083731
0.210963 0.193503 -0.082759
0.227339 0.200125 -0.071087
0.236275 0.181107 -0.073700
0.247627 0.192387 -0.065768
-0.010278 0.036232 -0.090072
-0.000574 0.049373 -0.092248
-0.012720 0.015260 -0.098572
-0.002545 0.028243 -0.097073
-0.017915 0.078385 -0.087088
-0.009070 0.091810 -0.087851
-0.016166 0.053195 -0.089531
-0.006846 0.065725 -0.089065
0.029438 -0.404696 -0.052806
0.039263 -0.358865 -0.029507
0.027151 -0.422166 -0.054030
0.039851 -0.380747 -0.025017
0.023054 -0.355869 -0.055556
0.031266 -0.303702 -0.035867
0.027846 -0.380019 -0.064638
0.031672 -0.321038 -0.044972
0.065522 0.187813 -0.088535
0.080475 0.195240 -0.088429
0.062328 0.173508 -0.084920
0.078165 0.180727 -0.086849
0.060205 0.219992 -0.111012
0.073525 0.228000 -0.107778
0.054607 0.207257 -0.111137
0.070465 0.212369 -0.108703
0.042340 -0.072636 -0.080708
0.046559 -0.060560 -0.089704
0.050163 -0.088891 -0.064486
0.055628 -0.077559 -0.071976
0.031101 -0.028753 -0.095986
0.037667 -0.015916 -0.097396
0.035124 -0.050804 -0.090207
0.041880 -0.036954 -0.096380
-0.067308 -0.261676 0.063832
-0.062758 -0.245874 0.068850
-0.065810 -0.284881 0.040909
-0.067625 -0.267107 0.046865
-0.068751 -0.214598 0.064440
-0.061230 -0.200915 0.052198
-0.065944 -0.231665 0.058489
-0.060131 -0.220261 0.050355
0.084067 -0.036415 0.018195
0.088721 -0.026474 0.009158
0.086119 -0.062644 0.029263
0.089740 -0.050844 0.019555
0.068819 0.006603 0.003279
0.075947 0.013809 -0.006395
0.077003 -0.013999 0.013450
0.081744 -0.006677 0.002383
-0.087050 -0.270442 0.047235
-0.079401 -0.254101 0.040968
-0.077349 -0.300279 0.018645
-0.074626 -0.269015 0.029291
-0.077640 -0.244871 0.076799
-0.072961 -0.228552 0.074368
-0.081617 -0.257476 0.059502
-0.074716 -0.242080 0.054203
0.068297 -0.330937 -0.018481
0.073686 -0.299642 0.010063
0.058202 -0.348362 -0.031439
0.073267 -0.315539 -0.005850
0.075317 -0.298143 -0.002333
0.077088 -0.272832 0.019898
0.067190 -0.309592 -0.015107
0.078241 -0.281547 0.009661
0.044431 0.295640 -0.098513
0.061935 0.293633 -0.090468
0.030421 0.284027 -0.104996
0.049566 0.283734 -0.100496
0.072521 0.291363 -0.082102
0.089019 0.288479 -0.073737
0.088978 0.278725 -0.087064
0.108536 0.275920 -0.078730
-0.056929 0.377459 0.006095
-0.055925 0.389528 -0.008120
-0.052306 0.345078 0.007282
-0.055634 0.360737 0.004392
-0.055474 0.422659 -0.004263
-0.048636 0.431268 -0.017872
-0.063785 0.400640 -0.014256
-0.060951 0.414777 -0.021380
0.159335 0.179820 -0.069907
0.175391 0.187893 -0.078369
0.185773 0.170371 -0.070107
0.203471 0.176680 -0.070572
0.195551 0.197948 -0.071168
0.204788 0.215931 -0.061501
0.216176 0.194289 -0.056636
0.224187 0.210480 -0.055553
-0.124731 0.260447 -0.019248
-0.114293 0.274619 -0.023593
-0.129189 0.245388 -0.025169
-0.113824 0.259369 -0.034130
-0.094924 0.283288 -0.018922
-0.076069 0.287901 -0.031130
-0.106268 0.277574 -0.031426
-0.090393 0.284838 -0.035244
-0.024508 0.133400 -0.096581
-0.014565 0.145782 -0.100347
-0.018816 0.107718 -0.092321
-0.011275 0.121637 -0.097128
-0.021666 0.185164 -0.104487
-0.007461 0.196623 -0.111637
-0.019231 0.164657 -0.101739
-0.006538 0.176000 -0.107872
0.017564 0.332288 -0.011461
0.019532 0.346533 -0.022625
0.015449 0.314937 -0.021437
0.010939 0.330686 -0.027536
0.016774 0.394588 -0.013756
0.015778 0.398859 -0.032292
0.022058 0.364989 -0.021587
0.017532 0.377573 -0.028435
0.065270 -0.381314 -0.027453
0.071298 -0.342251 -0.003001
0.058812 -0.394097 -0.026307
0.068743 -0.358159 -0.004862
0.075509 -0.350972 -0.013632
0.079217 -0.316355 0.019163
0.070188 -0.367756 -0.016181
0.078027 -0.330726 0.009742
0.062709 -0.405373 -0.043558
0.076580 -0.358592 -0.025834
0.058153 -0.420776 -0.037387
0.065880 -0.381537 -0.015783
0.065886 -0.380072 -0.049626
0.074751 -0.318902 -0.030856
0.061333 -0.395542 -0.060063
0.077886 -0.336887 -0.030363
-0.036179 0.192509 0.043867
-0.027165 0.204121 0.034669
-0.032799 0.175374 0.044205
-0.023003 0.188341 0.039591
-0.042364 0.227149 0.031397
-0.032275 0.237502 0.023326
-0.040408 0.209147 0.041564
-0.028889 0.220363 0.030928
-0.076515 -0.197833 0.085881
-0.081836 -0.188583 0.070426
-0.077168 -0.215931 0.088274
-0.076513 -0.207938 0.075181
-0.087416 -0.156841 0.071172
-0.086233 -0.154521 0.055464
-0.082219 -0.175496 0.077797
-0.084037 -0.169278 0.063682
-0.023862 0.257749 0.008839
-0.011766 0.268698 0.000081
-0.021907 0.242482 0.016825
-0.011446 0.253126 0.009835
-0.023470 0.308852 0.011078
-0.014385 0.324545 0.009597
-0.017911 0.287600 0.008686
-0.010614 0.301605 0.016074
0.072705 -0.186282 0.015415
0.078865 -0.180184 0.004286
0.072403 -0.216280 0.026338
0.078344 -0.204073 0.013982
0.075414 -0.147210 -0.006249
0.080339 -0.135944 -0.011218
0.075413 -0.167367 0.005196
0.079864 -0.158566 -0.004900
-0.022729 0.381997 0.040318
-0.005458 0.391674 0.033456
-0.020799 0.358313 0.040868
-0.005627 0.368872 0.039341
-0.025386 0.442244 0.010605
-0.010964 0.445603 -0.005772
-0.021354 0.419626 0.022977
-0.007656 0.428015 0.011848
-0.054382 -0.342398 -0.016226
-0.052953 -0.287113 0.013548
-0.055261 -0.371110 -0.031282
-0.049521 -0.311744 -0.000693
-0.041915 -0.221293 0.050487
-0.034391 -0.207467 0.041215
-0.042517 -0.246929 0.036602
-0.033504 -0.232227 0.041383
0.038510 -0.238724 0.068446
0.036308 -0.221672 0.061542
0.039564 -0.258567 0.035723
0.039371 -0.245462 0.050228
0.026409 -0.160847 0.048431
0.027195 -0.147888 0.032543
0.026679 -0.191223 0.058706
0.028332 -0.179623 0.046526
-0.110326 0.142321 -0.043316
-0.106202 0.152010 -0.054693
-0.107330 0.125128 -0.038906
-0.099904 0.132760 -0.051202
-0.120168 0.179705 -0.049663
-0.109873 0.190609 -0.061819
-0.114570 0.160781 -0.048624
-0.108282 0.174839 -0.058619
-0.095880 0.004119 0.025320
-0.089368 0.017432 0.023170
-0.086849 -0.012822 0.039245
-0.085504 -0.001309 0.032638
-0.081227 0.060403 0.024929
-0.078767 0.076053 0.025047
-0.085615 0.032562 0.022535
-0.080992 0.045173 0.020087
0.095323 0.226020 -0.074611
0.108430 0.229734 -0.080253
0.083230 0.207916 -0.081123
0.092954 0.218573 -0.084357
0.104720 0.273694 -0.066791
0.117640 0.269472 -0.062047
0.120280 0.262115 -0.074386
0.132335 0.253484 -0.065487
0.063030 -0.250468 0.077648
0.063840 -0.229759 0.077380
0.066589 -0.270337 0.051710
0.063452 -0.253661 0.063651
0.057603 -0.174112 0.080292
0.059457 -0.160809 0.072436
0.058774 -0.204180 0.086119
0.058501 -0.189605 0.078749
0.012945 0.205756 0.021143
0.019996 0.216842 0.012393
0.016334 0.186954 0.025676
0.026597 0.195871 0.017917
0.001808 0.245384 0.007198
0.009116 0.258784 0.001947
0.007398 0.226960 0.014057
0.015091 0.238869 0.005387
0.035288 -0.247017 0.022311
0.037929 -0.231118 0.026687
0.036807 -0.271794 -0.004731
0.040900 -0.250918 0.007367
0.019352 -0.165883 0.007704
0.023185 -0.154507 -0.002745
0.024689 -0.190274 0.023030
0.027082 -0.180637 0.008547
-0.078134 -0.289735 0.072324
-0.081758 -0.271193 0.069841
-0.083799 -0.306485 0.060654
-0.083036 -0.286047 0.058388
-0.068964 -0.259855 0.101584
-0.071293 -0.244341 0.108377
-0.074972 -0.276471 0.083428
-0.076146 -0.259384 0.085621
-0.144367 -0.032014 0.185780
-0.149571 -0.030657 0.168019
-0.123388 -0.054831 0.199837
-0.130003 -0.055706 0.181799
-0.148410 -0.013597 0.171197
-0.155780 -0.010796 0.152351
-0.117465 -0.020777 0.177990
-0.117083 -0.019318 0.158142
-0.081373 -0.094615 -0.035316
-0.075356 -0.086760 -0.049169
-0.072390 -0.112875 -0.020655
-0.068083 -0.104042 -0.033342
-0.090602 -0.059523 -0.057671
-0.083741 -0.051127 -0.071229
-0.087606 -0.077444 -0.046292
-0.080819 -0.070225 -0.060651
0.071426 0.226314 -0.012022
0.082389 0.230934 -0.024996
0.070702 0.206704 -0.010742
0.075196 0.216086 -0.020992
0.067940 0.255310 -0.025230
0.073958 0.262094 -0.036103
0.075957 0.245593 -0.023231
0.088644 0.250083 -0.034520
-0.050882 0.406026 -0.065999
-0.042526 0.420764 -0.073393
-0.052970 0.386668 -0.070817
-0.042820 0.399454 -0.078558
-0.032068 0.447689 -0.042388
-0.014284 0.451535 -0.047505
-0.042309 0.434314 -0.061954
-0.031169 0.442344 -0.067929
0.079812 -0.035399 -0.056121
0.077270 -0.022166 -0.058484
0.082567 -0.059914 -0.044252
0.082880 -0.046378 -0.049129
0.065769 -0.002892 -0.071692
0.073546 0.011502 -0.067064
0.071041 -0.021906 -0.070256
0.077366 -0.007698 -0.064276
-0.145523 0.208845 0.031890
-0.142998 0.220907 0.021212
-0.149694 0.185014 0.030498
-0.147230 0.197664 0.020119
-0.123074 0.269530 0.002607
-0.107894 0.276137 -0.007276
-0.120909 0.267022 0.022425
-0.106039 0.270564 0.010188
0.248956 0.151875 -0.038896
0.264659 0.167561 -0.037458
0.276537 0.144763 -0.039826
0.293755 0.155750 -0.044401
0.273274 0.172410 -0.015096
0.285020 0.186824 -0.024147
0.295783 0.169925 -0.016442
0.313002 0.177202 -0.020722
0.123944 0.208237 -0.071921
0.135075 0.221046 -0.070273
0.142654 0.199157 -0.066141
0.154087 0.210772 -0.069590
0.167819 0.201979 -0.056258
0.178465 0.216129 -0.054680
0.182818 0.190246 -0.054388
0.197827 0.205772 -0.048324
0.049176 -0.045067 -0.086400
0.054281 -0.031163 -0.087132
0.053895 -0.064003 -0.076416
0.059298 -0.050993 -0.081142
0.044790 -0.001216 -0.093029
0.052062 0.012350 -0.088863
0.049340 -0.020354 -0.090319
0.057351 -0.006766 -0.086834
0.076029 -0.234467 0.025318
0.084954 -0.222692 0.028332
0.081140 -0.264681 0.003960
0.081779 -0.247241 0.016053
0.084356 -0.179243 0.032937
0.090365 -0.171542 0.023464
0.082918 -0.207218 0.045245
0.084207 -0.192819 0.039913
0.047681 -0.211633 0.007715
0.051289 -0.196680 -0.000707
0.053887 -0.242791 0.007436
0.053308 -0.226195 0.010777
0.040177 -0.159538 -0.019002
0.041030 -0.146087 -0.035502
0.037798 -0.184504 -0.002370
0.038744 -0.172362 -0.015685
0.075911 -0.242341 0.059503
0.074081 -0.226536 0.053111
0.078439 -0.259151 0.033816
0.080058 -0.246030 0.045702
0.088108 -0.119726 0.039339
0.088230 -0.108376 0.027820
0.082948 -0.147349 0.039694
0.084081 -0.134553 0.032574
-0.096141 -0.127129 0.057172
-0.094358 -0.119877 0.041048
-0.093642 -0.141396 0.061614
-0.090624 -0.138321 0.044865
-0.103517 -0.090256 0.039679
-0.103042 -0.087237 0.023451
-0.100353 -0.108840 0.046676
-0.098361 -0.103325 0.030486
-0.073501 0.112171 -0.077069
-0.068058 0.123572 -0.081406
-0.067541 0.087797 -0.076647
-0.061728 0.099365 -0.080958
-0.082810 0.160238 -0.079818
-0.075363 0.171120 -0.086419
-0.079236 0.136239 -0.077648
-0.070440 0.146822 -0.084309
0.009483 0.312703 -0.043756
0.012816 0.324171 -0.052530
0.010556 0.294656 -0.049861
0.017066 0.305639 -0.058386
0.001620 0.359259 -0.065868
0.007098 0.371922 -0.072351
0.003292 0.332281 -0.061973
0.008921 0.346518 -0.066467
0.066639 0.082947 -0.013134
0.068653 0.096845 -0.021986
0.070087 0.063749 -0.020133
0.072511 0.076351 -0.025853
0.071815 0.139480 -0.036581
0.075582 0.150258 -0.047944
0.068648 0.121072 -0.035867
0.074219 0.133913 -0.046420
-0.062356 0.183462 0.040466
-0.049539 0.195952 0.035174
-0.051333 0.167821 0.039858
-0.047243 0.179621 0.039605
-0.069562 0.245553 0.019644
-0.055577 0.252205 0.013877
-0.070737 0.234806 0.028025
-0.052631 0.239685 0.020631
-0.012611 -0.102701 0.055439
-0.007607 -0.089918 0.046521
-0.009673 -0.131173 0.054667
-0.010026 -0.116310 0.045151
-0.011622 -0.058974 0.056403
-0.003064 -0.045024 0.054761
-0.015644 -0.082334 0.056787
-0.004476 -0.071039 0.049683
0.028286 -0.364846 -0.030852
0.039584 -0.331391 -0.004825
0.031668 -0.387538 -0.040492
0.038029 -0.351761 -0.014861
0.028331 -0.334837 -0.038148
0.035093 -0.287654 -0.023030
0.030324 -0.365672 -0.046162
0.033558 -0.315653 -0.028577
-0.039983 0.097884 0.049282
-0.030577 0.109725 0.052475
-0.039910 0.070902 0.049632
-0.031065 0.084484 0.054289
-0.041668 0.146599 0.046716
-0.034104 0.160867 0.045654
-0.036876 0.126710 0.048874
-0.030001 0.142563 0.049058
-0.110385 -0.031675 -0.018160
-0.109506 -0.024635 -0.033451
-0.111717 -0.048568 -0.011329
-0.109301 -0.044417 -0.026653
-0.109972 0.013967 -0.021707
-0.109116 0.021311 -0.033761
-0.112463 -0.007945 -0.025503
-0.112393 0.001720 -0.036665
-0.164762 0.039428 0.107782
-0.152142 0.043378 0.091913
-0.134267 0.029461 0.119583
-0.134909 0.029723 0.099489
-0.166039 0.060255 0.095232
-0.155397 0.063144 0.075577
-0.133361 0.051172 0.100809
-0.137158 0.054830 0.081066
0.094353 -0.094347 0.010619
0.096227 -0.080041 0.001811
0.090121 -0.123487 0.023395
0.089059 -0.110853 0.012215
0.089190 -0.028381 -0.002922
0.096787 -0.018529 -0.013429
0.096089 -0.065988 -0.000545
0.096646 -0.052263 -0.009155
0.032338 -0.092159 -0.063822
0.038871 -0.084032 -0.073479
0.037708 -0.110458 -0.045388
0.042827 -0.101155 -0.058733
0.018076 -0.062506 -0.090788
0.026512 -0.050015 -0.098584
0.023067 -0.076783 -0.077365
0.033045 -0.067715 -0.089631
0.065579 0.108560 -0.049185
0.071720 0.121137 -0.051792
0.065567 0.088354 -0.049319
0.072116 0.098990 -0.054539
0.072651 0.168154 -0.060381
0.082529 0.177173 -0.070971
0.076536 0.152982 -0.059705
0.077019 0.163762 -0.070845
0.018576 0.299040 -0.034788
0.023671 0.310226 -0.042382
0.020825 0.282585 -0.035193
0.027191 0.289578 -0.050054
0.023125 0.344640 -0.036116
0.016664 0.356769 -0.052141
0.021645 0.327287 -0.037113
0.017847 0.339155 -0.049283
-0.041928 0.277322 0.000409
-0.035565 0.288843 -0.008585
-0.040892 0.255031 0.004317
-0.029501 0.269190 0.001513
-0.052705 0.332482 -0.005719
-0.047272 0.345641 -0.010690
-0.044222 0.309716 -0.001309
-0.045112 0.323685 -0.001660
0.039099 -0.431161 -0.035603
0.049146 -0.403127 -0.026317
0.041552 -0.444588 -0.014186
0.044714 -0.425567 -0.018559
0.031090 -0.426892 -0.077298
0.037866 -0.376453 -0.051365
0.034919 -0.440739 -0.068911
0.044121 -0.397174 -0.040126
-0.041299 0.359079 0.028242
-0.033336 0.373935 0.031160
-0.036668 0.335845 0.032071
-0.028632 0.350539 0.032109
-0.049574 0.420073 0.013517
-0.034670 0.428142 0.011449
-0.045814 0.397442 0.024676
-0.037476 0.411740 0.019934
-0.049926 -0.474021 0.013314
-0.033648 -0.462422 0.001413
-0.051967 -0.481511 0.028074
-0.036659 -0.477228 0.011604
-0.038870 -0.405964 -0.054893
-0.042828 -0.354458 -0.031289
-0.031434 -0.424244 -0.059919
-0.038232 -0.371162 -0.039522
-0.007545 -0.050353 -0.096355
0.002172 -0.037809 -0.102063
-0.006060 -0.066137 -0.084733
0.005365 -0.057106 -0.092299
-0.013402 -0.009146 -0.100359
-0.005289 0.004359 -0.102813
-0.012619 -0.031660 -0.102513
-0.002629 -0.020000 -0.105146
0.065530 0.056602 0.000794
0.066419 0.069787 -0.005984
0.064546 0.036690 -0.003449
0.066901 0.050303 -0.012636
0.058574 0.101203 0.009628
0.064620 0.111947 -0.001864
0.063759 0.082276 0.004374
0.066206 0.096582 -0.003969
0.018949 0.270971 -0.113102
0.039325 0.272962 -0.111597
0.016724 0.251841 -0.113973
0.032204 0.257468 -0.116458
0.058113 0.278915 -0.110112
0.073434 0.279937 -0.098458
0.059522 0.267794 -0.109576
0.080845 0.264821 -0.102548
0.078739 -0.100971 -0.030103
0.081243 -0.087889 -0.038276
0.079542 -0.125289 -0.013719
0.081873 -0.113607 -0.022492
0.073999 -0.057485 -0.060032
0.073153 -0.045422 -0.063387
0.075013 -0.079525 -0.047060
0.077838 -0.069476 -0.052650
-0.057776 -0.357189 0.035695
-0.066977 -0.328670 0.058709
-0.060096 -0.374405 0.020654
-0.066566 -0.345479 0.048163
-0.074629 -0.333654 0.042342
-0.076570 -0.300966 0.052659
-0.077560 -0.348251 0.026229
-0.077944 -0.317341 0.048189
0.027941 0.230021 0.007890
0.036141 0.239948 -0.002312
0.034029 0.211061 0.015316
0.041905 0.221538 0.006145
0.018104 0.267341 -0.007531
0.028367 0.276604 -0.014990
0.023417 0.250045 0.000723
0.032451 0.259363 -0.007807
-0.111080 -0.056935 0.013865
-0.111198 -0.050626 0.000375
-0.107796 -0.072152 0.028392
-0.107155 -0.071472 0.012024
-0.114197 -0.009143 -0.001840
-0.112591 -0.000039 -0.012901
-0.113278 -0.032171 0.002958
-0.114976 -0.022846 -0.012102
-0.066814 0.185560 -0.092170
-0.057990 0.196942 -0.097215
-0.063155 0.160141 -0.090727
-0.053980 0.174108 -0.094471
-0.073846 0.224773 -0.086308
-0.062142 0.237879 -0.087785
-0.070402 0.206372 -0.090883
-0.060926 0.220798 -0.093471
-0.019431 0.118157 0.053508
-0.008304 0.131053 0.050544
-0.020310 0.095389 0.056362
-0.009152 0.106348 0.054718
-0.021147 0.159349 0.046224
-0.014400 0.174157 0.042392
-0.018041 0.138652 0.050538
-0.008854 0.152315 0.046813
-0.149971 0.028887 0.146672
-0.158657 0.038271 0.128425
-0.129584 0.014971 0.154235
-0.125673 0.025357 0.138609
-0.157788 0.058963 0.129930
-0.165841 0.064363 0.115096
-0.137507 0.044258 0.138668
-0.127238 0.050884 0.119870
0.058115 -0.481639 0.008341
0.071585 -0.476283 -0.016592
0.052644 -0.480936 0.022600
0.070583 -0.469584 0.001698
0.055666 -0.476441 -0.011258
0.049308 -0.467616 -0.034491
0.048059 -0.470800 0.008773
0.055995 -0.458366 -0.009065
-0.057703 0.383188 -0.028757
-0.055066 0.393036 -0.042396
-0.055866 0.359514 -0.018239
-0.055360 0.365478 -0.034706
-0.056862 0.425630 -0.036063
-0.046503 0.437277 -0.046309
-0.055496 0.409492 -0.040112
-0.050778 0.419110 -0.056752
0.017181 -0.108700 -0.043591
0.022938 -0.102015 -0.060461
0.020532 -0.129744 -0.035906
0.025601 -0.120030 -0.047080
-0.004408 -0.077465 -0.071453
0.007600 -0.072927 -0.084692
0.000210 -0.089112 -0.063526
0.011465 -0.082938 -0.074904
0.049990 -0.456850 -0.085370
0.049577 -0.445690 -0.097858
0.066179 -0.458583 -0.054755
0.063644 -0.451850 -0.074429
0.031606 -0.418407 -0.097631
0.036061 -0.363902 -0.071197
0.042725 -0.432209 -0.097315
0.048649 -0.387742 -0.077194
0.081791 -0.481956 0.003927
0.091051 -0.471626 -0.024575
