ply
format ascii 1.0
element vertex 1681
property float x
property float y
property float z
end_header
0.018999 -0.200314 0.052619
0.025265 -0.225583 0.056182
0.027799 -0.213800 0.044511
0.087357 0.009282 -0.030327
0.093888 0.017945 -0.039174
0.093480 0.000665 -0.013130
0.099557 0.007663 -0.026362
0.075435 0.036836 -0.029997
0.076465 0.047028 -0.038734
0.077199 0.021435 -0.022687
0.086882 0.031615 -0.033539
0.089551 0.265371 -0.122121
0.108710 0.263033 -0.114415
0.111447 0.227784 -0.124247
0.120280 0.240822 -0.116386
0.126789 0.204294 -0.120121
0.140270 0.214215 -0.116084
0.142045 0.174553 -0.115028
0.150284 0.191077 -0.115123
0.026652 -0.322810 0.006775
0.031535 -0.286955 0.038815
0.030479 -0.343514 -0.000714
0.029267 -0.306088 0.025287
0.025471 -0.272984 0.006604
0.029997 -0.251652 0.023616
0.023937 -0.301334 -0.006587
0.031623 -0.266105 0.015920
-0.034543 -0.326328 0.006386
-0.030381 -0.275207 0.035076
-0.028485 -0.350007 -0.001275
-0.028106 -0.297458 0.023220
-0.022730 -0.246753 0.069057
-0.008426 -0.234185 0.071990
-0.015976 -0.288059 0.039219
-0.012945 -0.259335 0.061412
0.065274 0.027380 -0.088700
0.070433 0.042716 -0.086760
0.070259 0.010951 -0.091626
0.078441 0.024620 -0.084109
0.053711 0.073169 -0.092466
0.060100 0.087339 -0.089517
0.059023 0.050910 -0.091275
0.063327 0.064039 -0.086639
-0.054652 0.078381 0.034444
-0.045532 0.093526 0.037530
-0.056424 0.054306 0.035322
-0.046178 0.067038 0.037136
-0.057174 0.133395 0.029566
-0.045543 0.144762 0.032538
-0.052409 0.108333 0.031981
-0.044741 0.122225 0.034319
-0.022750 -0.165094 0.045643
-0.023007 -0.154038 0.031557
-0.020776 -0.192316 0.068421
-0.020204 -0.176491 0.055760
-0.020019 -0.106100 0.006050
-0.014990 -0.097061 -0.001160
-0.016503 -0.120530 0.019448
-0.011908 -0.114363 0.011677
-0.001448 0.325420 -0.074337
0.003638 0.340263 -0.083255
-0.004672 0.311933 -0.084304
0.009086 0.321149 -0.088606
-0.000376 0.383128 -0.075809
0.002600 0.390866 -0.088135
-0.008817 0.352747 -0.079835
-0.000977 0.368592 -0.084779
0.073837 0.283944 -0.057232
0.096168 0.285911 -0.061019
0.098764 0.264180 -0.055588
0.110344 0.270059 -0.060029
0.060944 0.304835 -0.064373
0.080364 0.308396 -0.074931
0.085179 0.302078 -0.062237
0.105616 0.291667 -0.074303
-0.018991 -0.187192 0.088071
-0.016336 -0.173591 0.073140
-0.017937 -0.218291 0.090791
-0.022894 -0.201929 0.084448
-0.016527 -0.136072 0.045230
-0.015219 -0.127884 0.034045
-0.012081 -0.157258 0.065053
-0.012874 -0.150514 0.051875
-0.053807 -0.172533 0.039397
-0.048291 -0.164976 0.025211
-0.053822 -0.189511 0.056890
-0.047173 -0.184267 0.039665
-0.064357 -0.129783 -0.000836
-0.059213 -0.121924 -0.014640
-0.060211 -0.152295 0.017698
-0.053849 -0.143675 0.005318
0.088548 -0.310818 0.032277
0.083906 -0.281216 0.062813
0.079949 -0.322619 0.027671
0.085989 -0.292972 0.056000
0.079768 -0.256667 0.085379
0.080506 -0.244125 0.095956
0.092560 -0.291979 0.042563
0.081494 -0.270518 0.073763
0.075166 -0.179667 0.101380
0.074417 -0.163357 0.092907
0.074080 -0.212399 0.113760
0.075235 -0.197362 0.108443
0.073360 -0.120398 0.082586
0.074726 -0.104364 0.073877
0.074129 -0.149839 0.095866
0.070479 -0.135510 0.086410
0.213850 0.086078 -0.084019
0.208420 0.107286 -0.098129
0.235215 0.068883 -0.066979
0.237072 0.081813 -0.085448
0.213683 0.117394 -0.089303
0.214905 0.138340 -0.091144
0.238497 0.093660 -0.075972
0.235943 0.112481 -0.085750
-0.082158 -0.358543 0.025920
-0.085448 -0.317998 0.051044
-0.075743 -0.376523 0.005879
-0.079591 -0.333411 0.037717
-0.076465 -0.312058 0.045257
-0.075693 -0.283443 0.066199
-0.076599 -0.322602 0.026896
-0.081943 -0.281459 0.045382
-0.109384 0.174966 0.007380
-0.107651 0.190148 -0.003641
-0.105839 0.156418 0.006260
-0.100752 0.169601 -0.008070
-0.118843 0.209043 0.008748
-0.109397 0.220864 0.003863
-0.113398 0.193906 0.011847
-0.106404 0.206582 0.002279
-0.103415 0.184593 0.021582
-0.092280 0.198664 0.019617
-0.097260 0.156577 0.027107
-0.088387 0.176092 0.022980
-0.098521 0.235702 0.033182
-0.085098 0.246450 0.024915
-0.098150 0.208568 0.035933
-0.090203 0.222403 0.034133
0.034005 0.430027 -0.020735
0.037429 0.430221 -0.037529
0.033315 0.402909 -0.014212
0.034495 0.406571 -0.033925
0.005555 0.467061 -0.034010
0.016644 0.457266 -0.048084
0.015908 0.459095 -0.013254
0.022405 0.457342 -0.031654
-0.071647 -0.076530 -0.070744
-0.062221 -0.068796 -0.082556
-0.062971 -0.094174 -0.049610
-0.056976 -0.083644 -0.065388
-0.074664 -0.039149 -0.090425
-0.064850 -0.028113 -0.099862
-0.074104 -0.056870 -0.085341
-0.063816 -0.046381 -0.098842
0.062920 0.178284 -0.001956
0.069437 0.188395 -0.014564
0.064533 0.158428 0.001427
0.069948 0.168792 -0.010779
0.060061 0.215277 -0.003406
0.069342 0.222587 -0.015458
0.063262 0.195757 -0.000978
0.069875 0.205755 -0.013988
0.026820 0.394061 -0.054629
0.031082 0.406241 -0.064053
0.024854 0.379645 -0.056655
0.027351 0.389762 -0.071420
0.014845 0.442591 -0.069076
0.028444 0.440409 -0.063775
0.021731 0.427263 -0.035246
0.029535 0.426139 -0.055909
-0.017690 0.421644 -0.095069
-0.001296 0.433210 -0.095678
-0.010099 0.396805 -0.087302
-0.000473 0.411315 -0.092569
-0.004293 0.466857 -0.072841
0.010210 0.461435 -0.063940
-0.011523 0.452374 -0.088188
0.008485 0.452801 -0.081591
0.079603 -0.147997 0.077900
0.086404 -0.134449 0.066200
0.084316 -0.169576 0.084782
0.090185 -0.158110 0.076935
0.086730 -0.086789 0.054365
0.088388 -0.073767 0.043201
0.085900 -0.118998 0.071061
0.087657 -0.103642 0.059482
-0.038573 -0.142735 0.013187
-0.033635 -0.132827 0.001246
-0.036635 -0.168685 0.036784
-0.034018 -0.154622 0.021828
-0.054009 -0.110865 -0.026982
-0.049345 -0.100820 -0.042367
-0.044919 -0.127747 -0.007328
-0.039936 -0.116323 -0.020065
0.004081 0.109812 -0.109012
0.012940 0.123492 -0.112511
0.008213 0.085294 -0.107034
0.015924 0.097259 -0.107270
0.003000 0.159283 -0.119572
0.010061 0.173143 -0.123343
0.005344 0.141227 -0.116561
0.016931 0.152209 -0.120397
-0.007358 0.004050 0.044108
0.005327 0.014150 0.041543
-0.006959 -0.023565 0.050982
0.002496 -0.009647 0.047074
0.000878 0.047060 0.051663
0.011403 0.056758 0.044461
-0.002642 0.026364 0.046110
0.009553 0.034965 0.042870
-0.020796 -0.071643 0.079485
-0.015101 -0.062239 0.066142
-0.014700 -0.096683 0.089111
-0.015296 -0.089285 0.073878
-0.026349 -0.023267 0.053930
-0.016935 -0.008987 0.048957
-0.024645 -0.046468 0.065075
-0.013135 -0.036383 0.055024
-0.004873 0.356254 0.031046
0.008930 0.371434 0.030644
-0.003274 0.335723 0.026896
0.010091 0.349226 0.025486
-0.013767 0.414910 0.012703
-0.002117 0.426050 0.005138
-0.006946 0.395595 0.021099
0.006687 0.404277 0.011024
-0.019295 -0.305860 0.049347
-0.018561 -0.271490 0.080805
-0.018481 -0.314700 0.033072
-0.018060 -0.284400 0.058087
-0.015666 -0.240489 0.096802
-0.012830 -0.226213 0.106328
-0.008872 -0.270230 0.066946
-0.009779 -0.253490 0.083785
-0.072692 0.271050 -0.080515
-0.055217 0.278356 -0.087929
-0.071433 0.253235 -0.088850
-0.058624 0.261279 -0.094176
-0.056625 0.303123 -0.067018
-0.039686 0.309962 -0.075876
-0.058997 0.288682 -0.075478
-0.042281 0.294405 -0.083622
-0.098979 0.058728 -0.007371
-0.096607 0.070639 -0.014911
-0.096800 0.035822 0.000946
-0.096532 0.045596 -0.011086
-0.100482 0.115200 -0.009828
-0.097457 0.125178 -0.021380
-0.099128 0.088479 -0.011674
-0.096801 0.102795 -0.019359
0.267897 0.043508 0.028934
0.279354 0.047572 0.006285
0.309950 0.021527 0.027380
0.325409 0.025930 0.004285
0.298591 0.038310 0.011461
0.307673 0.049437 -0.010541
0.335434 0.011330 0.002981
0.335176 0.020519 -0.025619
-0.064805 -0.457614 -0.044424
-0.047433 -0.442645 -0.053789
-0.053175 -0.463121 -0.018148
-0.046143 -0.457031 -0.035041
-0.063960 -0.428876 -0.047649
-0.052147 -0.387722 -0.033342
-0.055811 -0.444781 -0.040480
-0.046112 -0.419761 -0.048907
0.081098 0.249689 -0.118848
0.098764 0.252472 -0.115118
0.089803 0.232329 -0.115587
0.101297 0.237901 -0.111978
0.101478 0.195949 -0.116551
0.108877 0.209696 -0.120916
0.120243 0.178479 -0.108680
0.130484 0.188906 -0.116512
-0.129611 0.185383 -0.020197
-0.124204 0.193464 -0.035974
-0.121310 0.163561 -0.021635
-0.121557 0.178504 -0.031991
-0.137180 0.217407 -0.025196
-0.132386 0.231676 -0.035727
-0.131970 0.203557 -0.026072
-0.129360 0.216007 -0.040650
0.045524 0.011120 0.022718
0.051898 0.022564 0.010955
0.052903 -0.009665 0.029692
0.056663 0.002667 0.018303
0.042823 0.044035 0.029318
0.051454 0.056513 0.021395
0.042476 0.025898 0.023505
0.052714 0.038556 0.015241
-0.030206 0.385803 -0.079731
-0.023386 0.400918 -0.092027
-0.022629 0.364640 -0.073063
-0.016253 0.377496 -0.084417
-0.018783 0.441618 -0.071708
-0.005473 0.451154 -0.074529
-0.019135 0.424095 -0.079465
-0.009603 0.434834 -0.086536
0.041278 -0.439543 -0.051593
0.045134 -0.390593 -0.028865
0.053801 -0.436932 -0.006367
0.048726 -0.420690 -0.015739
0.032272 -0.404972 -0.055170
0.036305 -0.345498 -0.021042
0.032823 -0.426347 -0.065138
0.042995 -0.374148 -0.030354
0.019336 0.021938 0.042109
0.031172 0.031357 0.034537
0.017709 0.000773 0.039870
0.029089 0.010964 0.032337
0.022238 0.063328 0.047551
0.032474 0.074157 0.039558
0.021494 0.041125 0.045942
0.033118 0.052244 0.039211
-0.070485 0.051346 0.026400
-0.064820 0.065776 0.024487
-0.075440 0.020608 0.028707
-0.072300 0.037228 0.020960
-0.066980 0.107146 0.023355
-0.065354 0.121671 0.024100
-0.069523 0.078526 0.026260
-0.062612 0.093502 0.027831
0.024707 -0.142039 -0.012496
0.031383 -0.136108 -0.025515
0.025669 -0.166806 0.008271
0.027274 -0.152508 -0.003692
0.002471 -0.095470 -0.046863
0.016139 -0.088060 -0.058889
0.011588 -0.115436 -0.031530
0.015407 -0.103784 -0.048259
-0.049060 0.411387 0.005771
-0.043321 0.425102 0.000106
-0.042110 0.389189 0.014304
-0.038105 0.403156 0.009119
-0.032449 0.462350 -0.034758
-0.013705 0.469751 -0.034052
-0.035045 0.456591 -0.005625
-0.019306 0.460430 -0.017736
0.271063 0.041357 -0.016985
0.274032 0.050099 -0.041496
0.308554 0.021562 -0.017404
0.313225 0.032680 -0.037828
0.263513 0.071322 -0.026608
0.271202 0.084644 -0.044843
0.292275 0.048987 -0.018663
0.293826 0.059886 -0.041058
-0.074414 -0.149729 0.026658
-0.072226 -0.138901 0.012992
-0.067301 -0.172332 0.048674
-0.066431 -0.160916 0.033735
-0.089089 -0.106968 -0.002895
-0.083771 -0.099774 -0.020258
-0.081945 -0.125805 0.011279
-0.079002 -0.119588 -0.002427
0.025817 0.118276 0.037930
0.032280 0.133602 0.032755
0.026563 0.092885 0.043399
0.033937 0.103863 0.034574
0.021017 0.172511 0.018314
0.030178 0.182820 0.008500
0.025401 0.148702 0.024085
0.031867 0.163047 0.015693
0.022551 0.138048 -0.114602
0.033312 0.149714 -0.117824
0.024772 0.111495 -0.107974
0.032108 0.125449 -0.111033
0.036065 0.187191 -0.126070
0.049277 0.195421 -0.127708
0.033648 0.163339 -0.124463
0.046364 0.175527 -0.124013
-0.101504 0.178501 0.057611
-0.089684 0.192948 0.046670
-0.108091 0.141893 0.064513
-0.099531 0.160498 0.050199
-0.080102 0.265934 0.034428
-0.065052 0.270831 0.020589
-0.085043 0.244307 0.043632
-0.067649 0.253716 0.033690
-0.156235 0.079054 0.084548
-0.151929 0.080212 0.065204
-0.119149 0.071540 0.087965
-0.124403 0.076068 0.067070
-0.155470 0.095926 0.070877
-0.147540 0.100652 0.050878
-0.136531 0.084888 0.072948
-0.127936 0.094973 0.055584
-0.042509 -0.198064 0.147081
-0.055761 -0.188692 0.130904
-0.048349 -0.221200 0.139821
-0.053546 -0.207419 0.132444
-0.048600 -0.154622 0.131342
-0.055055 -0.145879 0.114855
-0.039618 -0.178597 0.139693
-0.048605 -0.169241 0.124608
-0.107152 0.132850 -0.026848
-0.104103 0.144984 -0.039609
-0.102421 0.113887 -0.029757
-0.101204 0.126311 -0.039913
-0.113347 0.171113 -0.039816
-0.116650 0.184636 -0.050885
-0.111412 0.156051 -0.035578
-0.111069 0.164165 -0.050767
-0.059392 -0.190730 0.150223
-0.072040 -0.180020 0.139724
-0.063641 -0.223905 0.144291
-0.066641 -0.206588 0.147187
-0.066145 -0.148293 0.127023
-0.072139 -0.139421 0.113305
-0.058159 -0.174709 0.137024
-0.068635 -0.165193 0.124624
-0.096388 0.078616 -0.055349
-0.091814 0.091107 -0.064847
-0.097843 0.056734 -0.053671
-0.091493 0.069025 -0.063586
-0.101136 0.117159 -0.050091
-0.098698 0.126447 -0.063459
-0.098677 0.097440 -0.052725
-0.096526 0.113472 -0.063134
0.076862 0.116971 -0.028923
0.082346 0.126403 -0.036762
0.078709 0.095476 -0.041137
0.079177 0.111463 -0.045046
0.082419 0.182729 -0.049008
0.090689 0.192408 -0.056663
0.076097 0.167799 -0.051608
0.086591 0.176164 -0.059787
0.098371 -0.079288 -0.007628
0.099015 -0.066122 -0.014808
0.098030 -0.105093 0.013635
0.098736 -0.092926 0.001436
0.099184 -0.024091 -0.033832
0.096579 -0.009615 -0.041472
0.100253 -0.051547 -0.020351
0.099974 -0.037756 -0.027861
-0.004249 0.196211 0.019193
0.005310 0.206204 0.013725
0.003009 0.171082 0.023926
0.009478 0.184922 0.019734
-0.009653 0.236388 0.008393
0.001028 0.246355 0.003370
-0.008327 0.218107 0.014489
0.004430 0.225891 0.006934
0.062378 0.034313 0.002956
0.065417 0.046012 -0.006856
0.065265 0.016032 0.007459
0.069488 0.025062 -0.005807
0.058838 0.071644 0.014855
0.061698 0.086458 0.006849
0.063742 0.052963 0.008412
0.061631 0.068950 -0.000027
0.027042 0.386166 0.013468
0.031942 0.393408 -0.000751
0.029749 0.351751 0.005998
0.028114 0.368591 -0.002289
0.017301 0.437522 -0.004097
0.021296 0.443780 -0.022384
0.020404 0.412607 0.002662
0.028196 0.421249 -0.007282
-0.075647 0.169878 0.016675
-0.069924 0.182277 0.017467
-0.070479 0.143058 0.020752
-0.068104 0.157681 0.019862
-0.078814 0.225673 0.032144
-0.071556 0.235945 0.019790
-0.079493 0.201797 0.027630
-0.070537 0.217582 0.025312
0.005142 0.100354 0.047925
0.015368 0.113066 0.043371
0.005745 0.076857 0.048897
0.014136 0.089472 0.044369
0.006085 0.147254 0.035085
0.014836 0.160087 0.030088
0.007688 0.126686 0.040346
0.018588 0.138976 0.036175
0.120427 0.253263 -0.110420
0.132029 0.246049 -0.097195
0.131297 0.228419 -0.115202
0.140386 0.230167 -0.099026
0.149633 0.208516 -0.101913
0.148591 0.217925 -0.084911
0.167177 0.186082 -0.103244
0.163260 0.202163 -0.087621
-0.037007 -0.096628 0.101830
-0.035856 -0.084535 0.090738
-0.032810 -0.130097 0.121918
-0.035753 -0.114505 0.108146
-0.042896 -0.043842 0.072741
-0.038282 -0.037138 0.060025
-0.038229 -0.069522 0.090356
-0.036746 -0.062182 0.076264
-0.103011 0.265014 -0.065816
-0.087496 0.272196 -0.072883
-0.105106 0.247057 -0.073655
-0.091807 0.257052 -0.078631
-0.088029 0.291397 -0.055455
-0.071709 0.298159 -0.059469
-0.096089 0.279611 -0.060858
-0.076841 0.287221 -0.070944
0.013023 0.316978 -0.015222
0.015622 0.330301 -0.023558
0.018884 0.297558 -0.021477
0.022709 0.310481 -0.030044
0.024412 0.380037 -0.006455
0.022114 0.391803 -0.017165
0.019127 0.364326 -0.013527
0.027905 0.374222 -0.022139
-0.093119 -0.016605 -0.081624
-0.083561 -0.006125 -0.093117
-0.092993 -0.036799 -0.077158
-0.083443 -0.026293 -0.089351
-0.087241 0.021641 -0.078807
-0.078141 0.034494 -0.089022
-0.090643 0.003392 -0.082548
-0.080839 0.015979 -0.091380
0.064340 -0.091062 0.073888
0.065451 -0.077537 0.064584
0.060763 -0.120445 0.091317
0.059859 -0.104677 0.081680
0.061641 -0.036188 0.043615
0.065297 -0.024087 0.031653
0.064560 -0.062706 0.059374
0.068153 -0.050074 0.048902
-0.048349 0.359663 -0.034909
-0.051426 0.369267 -0.047325
-0.052381 0.344113 -0.029476
-0.045610 0.348255 -0.048464
-0.058937 0.420337 -0.050665
-0.054013 0.433690 -0.060421
-0.055319 0.392671 -0.053944
-0.054619 0.405760 -0.068506
-0.122022 0.226161 0.040703
-0.112217 0.239476 0.037208
-0.118381 0.196086 0.054456
-0.107958 0.213805 0.048112
-0.110563 0.274446 0.029275
-0.096005 0.279995 0.018475
-0.106370 0.253933 0.041320
-0.094305 0.263933 0.033191
-0.040549 0.216808 -0.111997
-0.024713 0.225144 -0.119572
-0.036969 0.197904 -0.113136
-0.024662 0.207819 -0.119227
-0.038778 0.252354 -0.105382
-0.025296 0.261088 -0.108855
-0.036820 0.234853 -0.109378
-0.022530 0.243321 -0.114365
-0.147024 0.077901 0.117959
-0.153078 0.084868 0.104901
-0.129219 0.067042 0.123845
-0.118702 0.073707 0.106363
-0.148342 0.103457 0.099970
-0.149142 0.113091 0.084654
-0.129993 0.087512 0.112529
-0.116860 0.094663 0.091567
0.018116 -0.166229 0.046264
0.018562 -0.150725 0.031940
0.023014 -0.192633 0.065967
0.022063 -0.178843 0.053886
-0.000388 -0.104496 0.002707
0.001114 -0.095427 -0.008364
0.003739 -0.126898 0.021051
0.005547 -0.118185 0.006628
-0.139920 0.239069 -0.004855
-0.133836 0.247999 -0.021142
-0.142363 0.220557 -0.001249
-0.138543 0.229184 -0.017772
-0.134483 0.267445 -0.005548
-0.122575 0.276884 -0.019286
-0.136521 0.253557 0.001265
-0.126511 0.266886 -0.012548
-0.131879 0.213024 0.035269
-0.127850 0.225162 0.021865
-0.131324 0.192535 0.038637
-0.130765 0.200140 0.022423
-0.129580 0.259133 0.019610
-0.115150 0.272335 0.015158
-0.131128 0.241797 0.028340
-0.117667 0.253637 0.024213
0.014317 -0.069062 0.043302
0.024868 -0.058272 0.045457
0.018798 -0.098408 0.054650
0.023810 -0.083143 0.049474
0.012621 -0.021545 0.048173
0.022596 -0.011343 0.039056
0.013178 -0.050987 0.052767
0.018786 -0.035714 0.047990
-0.116048 0.121615 0.063796
-0.120680 0.124856 0.040614
-0.114454 0.099428 0.066104
-0.113715 0.110322 0.048269
-0.112248 0.173202 0.039158
-0.107583 0.193552 0.032511
-0.109977 0.144347 0.046098
-0.114014 0.154969 0.034872
0.035101 -0.468043 0.019838
0.030949 -0.461245 0.000520
0.037658 -0.466079 0.039873
0.047764 -0.454003 0.026839
0.034797 -0.447306 -0.008742
0.030314 -0.429774 -0.008876
0.031017 -0.452118 0.021571
0.031816 -0.435035 0.015290
0.043403 0.045450 -0.100471
0.050572 0.059909 -0.098767
0.048161 0.024189 -0.102302
0.057165 0.037048 -0.098208
0.029433 0.089254 -0.104562
0.038174 0.101437 -0.104378
0.035156 0.065276 -0.104213
0.042488 0.076028 -0.102510
0.042391 0.090049 0.029124
0.051379 0.102424 0.022013
0.044162 0.066953 0.030217
0.049194 0.080275 0.021827
0.039890 0.150383 0.021186
0.049566 0.160993 0.011105
0.042348 0.122832 0.022306
0.045847 0.138579 0.019137
-0.139430 0.126518 0.084192
-0.132866 0.140007 0.066280
-0.133034 0.106250 0.096362
-0.118950 0.118198 0.083064
-0.124828 0.172840 0.058364
-0.117086 0.187651 0.049105
-0.124760 0.142923 0.078715
-0.118319 0.157972 0.063019
-0.016546 -0.174894 0.120269
-0.019490 -0.165595 0.107040
-0.016732 -0.206182 0.125335
-0.022192 -0.191416 0.114985
-0.017210 -0.124908 0.089099
-0.016875 -0.116720 0.073665
-0.015338 -0.152264 0.101274
-0.017196 -0.143072 0.084515
0.044892 -0.191228 0.119155
0.047150 -0.175741 0.112852
0.049437 -0.220313 0.128078
0.050592 -0.205050 0.125682
0.047243 -0.129528 0.092086
0.050325 -0.115789 0.082368
0.045232 -0.155789 0.101539
0.045128 -0.142839 0.089032
0.068513 0.146607 -0.013287
0.072449 0.158850 -0.022637
0.074025 0.122322 -0.013780
0.074254 0.135868 -0.022543
0.076833 0.197087 -0.026681
0.085341 0.203318 -0.038790
0.074781 0.180576 -0.027823
0.078023 0.193781 -0.043229
-0.073742 -0.208442 0.132462
-0.079969 -0.198232 0.119632
-0.076517 -0.234304 0.113495
-0.078689 -0.220039 0.113292
-0.078292 -0.165906 0.114505
-0.084702 -0.158130 0.101844
-0.075927 -0.184347 0.122695
-0.081218 -0.177262 0.106300
0.013155 0.192289 -0.127474
0.028411 0.202160 -0.133056
0.021533 0.169392 -0.122462
0.025499 0.183380 -0.127464
0.045983 0.218685 -0.128225
0.058997 0.228721 -0.128423
0.040923 0.202672 -0.131515
0.055061 0.212132 -0.129618
0.032769 -0.093804 0.064937
0.039025 -0.082339 0.059829
0.034814 -0.124169 0.080445
0.038464 -0.107878 0.073850
0.031371 -0.045028 0.048302
0.034000 -0.031328 0.040683
0.033269 -0.068553 0.056452
0.040179 -0.056163 0.047101
0.042929 0.114647 -0.103414
0.048636 0.127187 -0.104155
0.047078 0.089322 -0.098890
0.054197 0.101145 -0.096584
0.044926 0.159108 -0.118295
0.061502 0.165499 -0.116869
0.040464 0.137511 -0.112588
0.052311 0.147204 -0.110620
-0.098395 -0.057200 0.055447
-0.104489 -0.052491 0.042125
-0.096459 -0.072151 0.065063
-0.102150 -0.069402 0.047967
-0.098446 -0.014942 0.033600
-0.100674 -0.004255 0.021419
-0.097999 -0.034654 0.046531
-0.105097 -0.027584 0.029363
0.078248 0.162713 -0.031117
0.081393 0.172437 -0.038496
0.078490 0.141552 -0.033505
0.085316 0.153534 -0.041629
0.089685 0.213938 -0.045310
0.089518 0.224302 -0.055755
0.075342 0.202800 -0.056740
0.087228 0.209504 -0.058829
0.078666 -0.302910 -0.004339
0.083691 -0.266687 0.024308
0.077014 -0.322748 -0.006267
0.081176 -0.281927 0.012396
0.068433 -0.248526 0.030036
0.073795 -0.234560 0.042204
0.072441 -0.272951 0.009510
0.083341 -0.250495 0.030853
-0.071817 0.004625 -0.092427
-0.061225 0.018051 -0.098575
-0.073031 -0.013890 -0.096458
-0.063044 -0.001643 -0.102916
-0.062278 0.053871 -0.084531
-0.055968 0.069353 -0.086547
-0.065996 0.029318 -0.089240
-0.057530 0.042918 -0.094669
0.078405 0.137794 -0.070515
0.075726 0.152005 -0.081196
0.076111 0.120200 -0.074224
0.072719 0.133296 -0.081058
0.088373 0.191047 -0.069044
0.098226 0.200062 -0.073032
0.090933 0.176973 -0.070944
0.093059 0.185852 -0.082332
-0.080370 -0.168729 0.064901
-0.078814 -0.161290 0.049402
-0.072832 -0.191376 0.080128
-0.071359 -0.180883 0.066330
-0.091928 -0.131415 0.040027
-0.088141 -0.127222 0.025079
-0.085884 -0.148613 0.050637
-0.083970 -0.142778 0.035966
0.035505 -0.178375 0.101645
0.035603 -0.164115 0.092557
0.038627 -0.210753 0.113979
0.034255 -0.197118 0.105627
0.025813 -0.122144 0.065445
0.030675 -0.108499 0.057570
0.029825 -0.148566 0.086015
0.030309 -0.135589 0.074553
-0.053617 -0.015947 -0.103864
-0.042621 -0.003920 -0.109858
-0.054058 -0.035994 -0.102191
-0.042943 -0.024943 -0.108725
-0.048848 0.028877 -0.095605
-0.039673 0.043151 -0.098293
-0.051231 0.007588 -0.101644
-0.040590 0.017246 -0.106510
0.175285 0.114694 -0.070822
0.178650 0.124517 -0.087698
0.197180 0.092596 -0.067093
0.199831 0.104452 -0.082753
0.187897 0.130558 -0.070424
0.194484 0.150858 -0.074256
0.211689 0.111284 -0.063045
0.215047 0.129266 -0.071316
0.052083 0.135236 0.008774
0.057657 0.146099 -0.000028
0.052656 0.112833 0.015463
0.060196 0.124361 0.007541
0.041942 0.192404 0.011927
0.049790 0.204258 0.003586
0.044546 0.172875 0.011133
0.051999 0.182573 0.004623
-0.063544 -0.454779 0.057571
-0.043627 -0.443850 0.045744
-0.063176 -0.465144 0.078780
-0.048387 -0.460148 0.061610
-0.051345 -0.420889 0.055008
-0.053688 -0.388909 0.051072
-0.058900 -0.438291 0.043518
-0.054692 -0.418950 0.031967
-0.083515 0.057346 -0.070828
-0.073060 0.070420 -0.079829
-0.084941 0.039837 -0.074958
-0.075266 0.051518 -0.083982
-0.083651 0.099416 -0.077292
-0.077637 0.109389 -0.087487
-0.083947 0.080523 -0.073437
-0.074242 0.090188 -0.084282
-0.033941 0.286956 -0.093285
-0.015134 0.292396 -0.101784
-0.038217 0.269888 -0.099803
-0.021800 0.277207 -0.107112
-0.021680 0.320576 -0.082033
-0.008100 0.331501 -0.089446
-0.024647 0.303823 -0.092207
-0.010446 0.315034 -0.097409
-0.089112 0.133608 -0.074203
-0.086053 0.142980 -0.083340
-0.087636 0.108321 -0.066049
-0.084537 0.120463 -0.077032
-0.098749 0.174827 -0.076138
-0.094185 0.186417 -0.084893
-0.095006 0.155229 -0.076281
-0.087883 0.163515 -0.085852
0.070306 -0.085669 -0.052671
0.075083 -0.076159 -0.062533
0.070214 -0.109046 -0.030900
0.074751 -0.097744 -0.041937
0.071226 -0.031777 -0.089233
0.069999 -0.016053 -0.089256
0.072443 -0.053967 -0.077209
0.077526 -0.037000 -0.077311
-0.138158 0.160043 0.020152
-0.129166 0.171334 0.008952
-0.136816 0.136812 0.030021
-0.122073 0.151401 0.015697
-0.142675 0.196948 0.006372
-0.138622 0.206379 -0.011066
-0.141590 0.176587 0.012467
-0.139151 0.185832 -0.004152
-0.060870 -0.385335 0.026236
-0.073368 -0.345949 0.054548
-0.068976 -0.401819 0.013636
-0.076822 -0.363232 0.041345
-0.074194 -0.343637 0.022025
-0.082082 -0.298291 0.051513
-0.068141 -0.367279 0.011185
-0.072862 -0.321054 0.042812
-0.089602 0.092698 0.004420
-0.089660 0.106697 -0.001440
-0.090330 0.063568 0.004499
-0.088428 0.078262 -0.000630
-0.099387 0.144421 0.000014
-0.091414 0.156745 -0.005762
-0.090713 0.120488 -0.000984
-0.087385 0.137313 -0.003584
-0.063891 -0.261017 0.039030
-0.056634 -0.242486 0.047330
-0.060795 -0.289122 0.021527
-0.054050 -0.261339 0.046477
-0.059201 -0.209414 0.054966
-0.051661 -0.202108 0.040065
-0.065679 -0.233447 0.046981
-0.048552 -0.224445 0.045799
-0.035863 0.113222 -0.100797
-0.026988 0.127739 -0.102871
-0.032837 0.087625 -0.098134
-0.023408 0.101728 -0.100926
-0.042038 0.168550 -0.107561
-0.030793 0.180503 -0.112673
-0.034644 0.145202 -0.104418
-0.025290 0.159305 -0.109530
-0.030308 -0.063576 -0.088291
-0.018377 -0.060083 -0.102148
-0.024318 -0.077669 -0.075417
-0.014128 -0.071248 -0.086221
-0.030069 -0.031280 -0.109508
-0.018906 -0.018839 -0.112679
-0.028470 -0.048300 -0.102051
-0.016405 -0.040276 -0.108975
0.068918 0.063272 -0.070180
0.073926 0.076055 -0.066801
0.072497 0.040518 -0.073093
0.073795 0.053902 -0.075573
0.060418 0.098855 -0.082838
0.068953 0.110592 -0.078652
0.064559 0.078998 -0.079821
0.073956 0.092273 -0.074488
-0.109836 -0.019956 0.016573
-0.110879 -0.011244 0.002830
-0.108638 -0.044311 0.028478
-0.111066 -0.035915 0.012209
-0.103618 0.026105 0.005025
-0.109017 0.037915 -0.012573
-0.106026 0.005485 0.009517
-0.107874 0.016528 -0.004675
0.017884 -0.023621 -0.118961
0.028098 -0.011204 -0.119812
0.020920 -0.045488 -0.112950
0.030254 -0.032699 -0.118189
0.010685 0.017143 -0.114087
0.022332 0.029515 -0.115640
0.012028 -0.004777 -0.120148
0.022582 0.006991 -0.118458
-0.046454 -0.445273 -0.004744
-0.045524 -0.435858 -0.016670
-0.057812 -0.456663 0.027838
-0.049777 -0.445721 0.013254
-0.026669 -0.374388 -0.007572
-0.025827 -0.318695 0.018451
-0.029795 -0.395735 -0.023237
-0.029422 -0.340487 0.012095
-0.052320 0.085934 -0.092269
-0.043315 0.098283 -0.096804
-0.048883 0.057598 -0.094798
-0.040866 0.073142 -0.094984
-0.056959 0.142635 -0.097544
-0.050469 0.155499 -0.102871
-0.052529 0.117299 -0.095538
-0.045511 0.130235 -0.101232
-0.024177 0.027132 0.042435
-0.011967 0.038307 0.045113
-0.027794 0.003656 0.044384
-0.014927 0.016373 0.041967
-0.018024 0.077013 0.050946
-0.006475 0.087528 0.049968
-0.020410 0.052470 0.048752
-0.008262 0.061835 0.050482
0.082111 -0.055490 0.046448
0.085101 -0.044137 0.036328
0.077978 -0.084431 0.066784
0.078107 -0.069745 0.054939
0.068916 -0.009132 0.021816
0.073874 -0.000239 0.010280
0.075672 -0.033577 0.037179
0.079947 -0.022327 0.024573
0.061280 0.158819 -0.104175
0.069478 0.173641 -0.101170
0.063465 0.144306 -0.097818
0.075078 0.154665 -0.096256
0.076930 0.213028 -0.111461
0.091748 0.220086 -0.110243
0.077340 0.195552 -0.108976
0.090233 0.204212 -0.109188
-0.084083 -0.083261 0.087189
-0.087758 -0.074164 0.076678
-0.082243 -0.109657 0.105324
-0.088383 -0.099451 0.093043
-0.083719 -0.028614 0.057489
-0.087784 -0.017435 0.048066
-0.087368 -0.057846 0.070955
-0.091411 -0.044891 0.059752
0.090989 -0.118358 0.005304
0.090543 -0.105627 -0.006154
0.091042 -0.135298 0.031525
0.091736 -0.124248 0.020377
0.092805 -0.067583 -0.031428
0.096132 -0.054738 -0.035954
0.092571 -0.092666 -0.013813
0.093834 -0.079327 -0.024060
0.020322 0.231573 -0.134580
0.035006 0.239955 -0.135965
0.020535 0.214224 -0.132930
0.035544 0.222137 -0.137215
0.050311 0.250990 -0.133350
0.066857 0.262128 -0.128810
0.051737 0.238560 -0.134371
0.068820 0.242214 -0.130445
-0.100913 -0.098426 0.021832
-0.099889 -0.095011 0.002448
-0.098145 -0.114320 0.031652
-0.094182 -0.111863 0.013598
-0.108631 -0.064267 -0.004092
-0.107181 -0.058287 -0.022033
-0.106367 -0.082784 0.008458
-0.103280 -0.078153 -0.009281
0.051744 -0.288632 -0.005679
0.053220 -0.258457 0.021770
0.051295 -0.308748 -0.016806
0.056694 -0.273214 0.005790
0.032519 -0.203095 0.032656
0.033976 -0.195569 0.021240
0.028913 -0.233564 0.039103
0.037790 -0.223247 0.032202
0.009012 -0.118680 0.051061
0.014362 -0.106565 0.042287
0.011971 -0.139487 0.061956
0.015888 -0.131508 0.050019
-0.008202 -0.084317 0.029020
-0.001531 -0.069585 0.022160
0.000993 -0.098692 0.037175
0.007583 -0.085860 0.030267
0.057895 -0.308208 0.056964
0.054133 -0.280441 0.080547
0.060088 -0.325276 0.043317
0.057750 -0.293414 0.066798
0.048538 -0.244708 0.114197
0.048511 -0.229535 0.119278
0.057807 -0.273951 0.089970
0.054225 -0.258519 0.101321
0.049265 -0.064998 0.058672
0.052889 -0.051928 0.046938
0.048185 -0.094380 0.072953
0.052025 -0.081067 0.065080
0.037097 -0.016540 0.037202
0.040435 -0.003593 0.028462
0.045559 -0.036902 0.046571
0.048476 -0.024810 0.034582
-0.050394 -0.318824 0.072018
-0.060532 -0.286961 0.101833
-0.051543 -0.332518 0.061058
-0.058593 -0.308331 0.085007
-0.050744 -0.265727 0.120027
-0.053919 -0.247827 0.131162
-0.046690 -0.295103 0.091172
-0.055219 -0.274521 0.111070
0.091754 -0.016374 -0.056574
0.087213 -0.000985 -0.061692
0.095997 -0.040925 -0.041244
0.094605 -0.026766 -0.047874
0.084737 0.014068 -0.064972
0.082216 0.029246 -0.068058
0.094656 -0.002262 -0.048122
0.090691 0.013840 -0.053749
-0.033465 -0.363473 0.015665
-0.030350 -0.335764 0.050569
-0.035751 -0.381107 0.006833
-0.030518 -0.352841 0.040332
-0.028124 -0.330227 0.036819
-0.024274 -0.301604 0.073813
-0.030610 -0.349094 0.029633
-0.029751 -0.319656 0.060626
-0.084744 -0.126760 0.104402
-0.089386 -0.125734 0.086217
-0.081199 -0.148144 0.112387
-0.088158 -0.140233 0.097303
-0.094863 -0.091327 0.075816
-0.099762 -0.087398 0.060370
-0.092658 -0.112496 0.087250
-0.095294 -0.107444 0.072022
0.074921 0.038988 -0.052701
0.076579 0.053301 -0.059837
0.084102 0.026293 -0.048817
0.087549 0.038193 -0.050794
0.074038 0.075324 -0.047332
0.081435 0.086181 -0.051597
0.078149 0.058088 -0.044586
0.078756 0.068630 -0.056497
-0.057057 0.322669 -0.031351
-0.045327 0.334721 -0.034465
-0.045166 0.309062 -0.012041
-0.039796 0.321958 -0.022943
-0.046765 0.382639 -0.009200
-0.048232 0.395592 -0.020450
-0.051445 0.362943 -0.015485
-0.051249 0.377614 -0.028839
0.059306 0.131878 -0.096560
0.068490 0.142996 -0.092291
0.062270 0.110353 -0.094292
0.067407 0.122046 -0.090051
0.058130 0.187306 -0.121561
0.071039 0.199813 -0.119918
0.054176 0.176065 -0.112166
0.068832 0.183044 -0.110804
0.040261 -0.281555 0.049030
0.031390 -0.259645 0.073334
0.036987 -0.303260 0.039532
0.039637 -0.273880 0.068664
0.020779 -0.209416 0.089360
0.022144 -0.199347 0.079080
0.025981 -0.224508 0.091237
0.030733 -0.215173 0.081207
-0.006156 -0.138409 0.026258
-0.006195 -0.130172 0.011453
-0.009363 -0.164660 0.045348
-0.003999 -0.153078 0.032942
-0.020889 -0.090969 -0.024387
-0.008106 -0.082541 -0.034764
-0.015544 -0.103111 -0.013080
-0.008033 -0.089326 -0.022642
-0.001603 -0.124894 0.040973
0.006746 -0.114282 0.028513
0.002581 -0.145428 0.048103
0.005867 -0.137373 0.035269
-0.014690 -0.084721 -0.007012
-0.008578 -0.074502 -0.016751
-0.010910 -0.088291 0.008685
-0.004076 -0.075330 0.000688
0.096941 0.229772 -0.050791
0.099411 0.241800 -0.068155
0.081251 0.221428 -0.068555
0.093250 0.228519 -0.074289
0.109649 0.243728 -0.058855
0.117501 0.250164 -0.065844
0.113729 0.224142 -0.062485
0.124718 0.229925 -0.071457
-0.069081 -0.019505 0.051662
-0.061184 -0.006556 0.047525
-0.061510 -0.043984 0.073958
-0.061555 -0.031100 0.063400
-0.062458 0.029847 0.031799
-0.052544 0.042659 0.028926
-0.067068 0.005727 0.037744
-0.055688 0.017218 0.034475
-0.008846 0.233443 -0.124147
0.005239 0.243042 -0.128243
-0.010157 0.215780 -0.123345
0.004814 0.221483 -0.128184
-0.007748 0.272116 -0.116111
0.008861 0.280754 -0.120445
-0.010717 0.254799 -0.119993
0.006327 0.261350 -0.125376
-0.010719 -0.115474 -0.012028
0.000196 -0.102993 -0.022145
-0.004786 -0.124690 -0.000063
0.004390 -0.114554 -0.010081
-0.023834 -0.080143 -0.056083
-0.014468 -0.072038 -0.069710
-0.020049 -0.082251 -0.040529
-0.006593 -0.074597 -0.052633
-0.149538 0.131645 0.066386
-0.148474 0.137197 0.044046
-0.150646 0.114121 0.064773
-0.143111 0.119998 0.042409
-0.136722 0.166352 0.047861
-0.140513 0.175220 0.031765
-0.142733 0.148058 0.055804
-0.143625 0.154109 0.036567
0.058534 -0.411672 -0.046187
0.066327 -0.361517 -0.018128
0.060265 -0.424453 -0.027725
0.063572 -0.390350 -0.013259
0.076860 -0.340382 -0.017463
0.087114 -0.297587 0.009673
0.078067 -0.361271 -0.026417
0.085733 -0.314848 0.006211
0.031425 0.020536 -0.109124
0.039922 0.035772 -0.111163
0.035483 0.000501 -0.111018
0.044596 0.013083 -0.113178
0.016697 0.062901 -0.105610
0.023800 0.077593 -0.108773
0.020718 0.041337 -0.108520
0.030817 0.052745 -0.109843
-0.041991 -0.287707 0.047701
-0.043057 -0.262363 0.074500
-0.034490 -0.309718 0.031616
-0.037101 -0.274835 0.063442
-0.038314 -0.221785 0.098483
-0.037804 -0.205937 0.093844
-0.037166 -0.254075 0.088442
-0.037802 -0.239940 0.099852
0.102837 -0.056028 0.017411
0.106389 -0.045179 0.007855
0.100072 -0.077239 0.034154
0.101556 -0.069725 0.022830
0.097834 -0.014831 -0.015405
0.099654 -0.005876 -0.027652
0.102167 -0.035295 0.002931
0.108750 -0.028285 -0.008448
-0.092801 0.206081 -0.085552
-0.081873 0.218381 -0.094894
-0.084201 0.190720 -0.093286
-0.075911 0.202579 -0.099948
-0.095715 0.241283 -0.083259
-0.082682 0.253233 -0.091551
-0.094445 0.223211 -0.084159
-0.084220 0.235692 -0.095109
-0.045882 -0.090368 -0.059108
-0.038503 -0.080634 -0.073103
-0.036933 -0.102478 -0.033604
-0.033015 -0.092762 -0.048690
-0.054741 -0.058520 -0.092851
-0.042816 -0.048146 -0.103422
-0.050482 -0.073835 -0.077062
-0.041131 -0.066587 -0.091357
-0.051011 -0.378974 0.014166
-0.049490 -0.347923 0.046525
-0.048962 -0.400010 0.000807
-0.047709 -0.361850 0.027186
-0.050235 -0.343815 0.011492
-0.051170 -0.301177 0.040249
-0.047513 -0.367746 -0.002528
-0.050340 -0.326149 0.025725
-0.041880 0.349091 -0.065664
-0.035587 0.357984 -0.077102
-0.037278 0.327038 -0.069358
-0.025727 0.341319 -0.081026
-0.043006 0.398327 -0.061745
-0.036556 0.410856 -0.073885
-0.037772 0.368212 -0.055132
-0.037576 0.381663 -0.067013
0.088989 -0.254897 0.055844
0.081866 -0.244636 0.063821
0.087324 -0.287161 0.022241
0.080597 -0.257509 0.041690
0.083285 -0.191604 0.090959
0.085377 -0.179887 0.077477
0.078729 -0.228564 0.102643
0.080667 -0.210496 0.095494
-0.102419 0.052315 -0.027428
-0.101015 0.062938 -0.040966
-0.106016 0.034634 -0.029972
-0.105215 0.044669 -0.043103
-0.103685 0.093522 -0.029063
-0.102442 0.104426 -0.040880
-0.101316 0.073845 -0.026754
-0.098631 0.081803 -0.039030
-0.068065 -0.098356 0.107328
-0.073012 -0.090577 0.095728
-0.064968 -0.127392 0.122906
-0.069958 -0.119037 0.109116
-0.074602 -0.052334 0.077734
-0.077542 -0.039609 0.067015
-0.068681 -0.076919 0.095691
-0.073084 -0.066811 0.084043
-0.048054 0.001331 0.042723
-0.038171 0.012984 0.039829
-0.047051 -0.022465 0.057508
-0.036711 -0.011197 0.048378
-0.038725 0.053331 0.043575
-0.027719 0.065500 0.045739
-0.043764 0.029690 0.036398
-0.031779 0.040597 0.040340
-0.023192 -0.181946 0.137229
-0.024789 -0.164067 0.131410
-0.023938 -0.207996 0.148610
-0.026899 -0.193733 0.146020
-0.020048 -0.119837 0.105708
-0.024003 -0.106436 0.094859
-0.021459 -0.149307 0.121639
-0.020071 -0.136154 0.108281
-0.082582 -0.464076 0.022980
-0.071776 -0.448425 0.013291
-0.078338 -0.474669 0.045635
-0.068280 -0.464787 0.033366
-0.057029 -0.391130 -0.017758
-0.059031 -0.326040 0.009101
-0.059369 -0.412379 -0.030402
-0.060388 -0.356647 -0.010050
-0.101394 -0.073085 -0.026769
-0.096677 -0.067650 -0.044939
-0.096156 -0.091102 -0.015381
-0.092306 -0.082917 -0.030906
-0.104558 -0.036250 -0.051415
-0.099457 -0.029463 -0.066807
-0.103187 -0.054012 -0.041302
-0.097410 -0.049850 -0.058614
-0.122508 0.220457 -0.054011
-0.112141 0.230176 -0.068066
-0.122254 0.201753 -0.049930
-0.114227 0.213708 -0.064228
-0.122366 0.248977 -0.046257
-0.114497 0.259780 -0.056962
-0.124568 0.233303 -0.049572
-0.116164 0.243772 -0.061757
-0.030481 -0.285537 0.082389
-0.037963 -0.254934 0.108731
-0.036451 -0.306872 0.069484
-0.037072 -0.276502 0.100452
-0.029926 -0.235845 0.138999
-0.030054 -0.218707 0.143321
-0.027430 -0.259879 0.113144
-0.035331 -0.244477 0.126157
0.015748 -0.159009 0.066064
0.018997 -0.152373 0.050494
0.014778 -0.181212 0.075742
0.016553 -0.172740 0.062308
-0.008368 -0.099250 0.025111
0.001041 -0.085938 0.016429
-0.008576 -0.114928 0.030261
0.001634 -0.105868 0.016572
0.045137 -0.464581 -0.018576
0.044364 -0.462342 -0.036787
0.043272 -0.468903 0.013952
0.050006 -0.461993 0.000776
0.031332 -0.448441 -0.063473
0.034107 -0.404475 -0.036331
0.046165 -0.448998 -0.033848
0.044407 -0.433321 -0.035720
0.067721 -0.188579 0.036062
0.069594 -0.174950 0.024529
0.068776 -0.218557 0.045910
0.069461 -0.201095 0.043721
0.071690 -0.137668 -0.008122
0.074140 -0.124603 -0.019395
0.071553 -0.160418 0.013981
0.073843 -0.150256 -0.000008
-0.107346 0.000335 -0.057288
-0.101832 0.009637 -0.070490
-0.107222 -0.017597 -0.056005
-0.099684 -0.009691 -0.070405
-0.100556 0.036012 -0.057193
-0.095663 0.048052 -0.065479
-0.105249 0.019647 -0.057238
-0.098372 0.029037 -0.070696
-0.145812 -0.060224 0.197456
-0.151629 -0.062863 0.173005
-0.133141 -0.075093 0.218045
-0.138784 -0.074608 0.196664
-0.124231 -0.031709 0.194580
-0.126133 -0.030671 0.170260
-0.102901 -0.039866 0.197911
-0.107819 -0.038721 0.175501
0.095999 0.213085 -0.071747
0.108171 0.217952 -0.077886
0.085307 0.198866 -0.084058
0.098437 0.208595 -0.087459
0.122282 0.199077 -0.071106
0.131710 0.215342 -0.074853
0.131940 0.176357 -0.073068
0.137655 0.192870 -0.076865
-0.061939 0.221605 0.011158
-0.047258 0.233679 0.007045
-0.059064 0.204107 0.014941
-0.043776 0.215454 0.010396
-0.060813 0.283844 -0.022692
-0.048242 0.294588 -0.027425
-0.057548 0.272026 -0.010872
-0.040977 0.280205 -0.020085
-0.047811 -0.462138 0.002221
-0.034557 -0.455779 -0.014244
-0.047798 -0.476153 0.016646
-0.034419 -0.468305 0.002204
-0.035035 -0.436769 -0.040773
-0.040391 -0.389092 -0.020561
-0.031808 -0.432007 -0.017866
-0.036502 -0.412564 -0.014153
-0.159208 -0.055200 0.189281
-0.164401 -0.057320 0.167801
-0.151499 -0.077675 0.209696
-0.162861 -0.075037 0.190118
-0.159490 -0.032514 0.162140
-0.151289 -0.029116 0.142313
-0.146996 -0.047503 0.182679
-0.148821 -0.046390 0.158701
0.085926 -0.199599 0.080974
0.089041 -0.188795 0.070164
0.081901 -0.230056 0.075946
0.084390 -0.214765 0.080059
0.087407 -0.152712 0.032118
0.090576 -0.141505 0.018435
0.079423 -0.179652 0.039607
0.087956 -0.170374 0.030404
-0.026549 0.015601 -0.108077
-0.016362 0.029299 -0.106246
-0.030211 -0.008673 -0.110341
-0.018014 0.004269 -0.112397
-0.030542 0.057566 -0.096978
-0.023064 0.071509 -0.098036
-0.030897 0.031053 -0.101463
-0.021250 0.045191 -0.100540
-0.111047 0.150734 -0.013352
-0.106751 0.162447 -0.020369
-0.102760 0.132888 -0.008273
-0.097996 0.145777 -0.019819
-0.123380 0.190282 -0.004183
-0.122835 0.203821 -0.015189
-0.118434 0.169985 -0.005909
-0.115761 0.181711 -0.017883
0.030654 -0.320139 0.026416
0.033370 -0.283684 0.057136
0.031647 -0.337044 0.018086
0.035966 -0.303119 0.051307
0.027591 -0.246819 0.076988
0.027906 -0.234102 0.078189
0.023922 -0.259719 0.039104
0.026359 -0.245109 0.061934
0.156004 0.128720 -0.103535
0.164331 0.145143 -0.113686
0.180563 0.103943 -0.094157
0.175517 0.126655 -0.108540
0.161823 0.142987 -0.118464
0.170289 0.165664 -0.111989
0.196819 0.119049 -0.105966
0.195350 0.144438 -0.104121
-0.006352 0.042083 -0.104424
0.004996 0.055426 -0.107072
-0.006091 0.020488 -0.112724
0.003789 0.034083 -0.112149
-0.013414 0.083745 -0.100854
-0.004861 0.097572 -0.102814
-0.011427 0.058584 -0.102502
-0.002433 0.071560 -0.102785
0.033901 -0.403752 -0.026187
0.042491 -0.358798 0.002140
0.033417 -0.422679 -0.024153
0.040443 -0.378105 0.004592
0.033508 -0.362612 -0.038426
0.036518 -0.301277 -0.014230
0.034172 -0.385954 -0.046626
0.035458 -0.321177 -0.019924
0.073695 0.186133 -0.098383
0.086639 0.192273 -0.098300
0.075643 0.167942 -0.092419
0.084083 0.179702 -0.091868
0.068201 0.224702 -0.123460
0.080486 0.235136 -0.122125
0.060120 0.203981 -0.123765
0.073557 0.213361 -0.121901
0.050117 -0.070142 -0.087851
0.053647 -0.056872 -0.094927
0.058622 -0.086315 -0.064610
0.063125 -0.074926 -0.073732
0.038241 -0.025766 -0.107577
0.045674 -0.011973 -0.111632
0.042564 -0.049940 -0.102971
0.048380 -0.035061 -0.108045
-0.070863 -0.267443 0.081064
-0.067746 -0.251396 0.087661
-0.067186 -0.286362 0.049955
-0.069321 -0.265543 0.063852
-0.070920 -0.212279 0.082095
-0.063427 -0.200952 0.071448
-0.067058 -0.234134 0.082033
-0.058843 -0.222558 0.068919
0.092675 -0.028586 0.019290
0.097452 -0.021045 0.005025
0.094461 -0.057435 0.034357
0.096686 -0.043086 0.023928
0.079574 0.010407 -0.003111
0.087287 0.019159 -0.014681
0.084267 -0.011397 0.013895
0.090137 -0.005191 -0.000185
-0.088048 -0.272819 0.063698
-0.081001 -0.255677 0.063492
-0.076517 -0.301144 0.032204
-0.072060 -0.267589 0.047360
-0.079531 -0.237999 0.097010
-0.076908 -0.222612 0.092893
-0.082957 -0.248596 0.079282
-0.076591 -0.235069 0.068008
0.070466 -0.330306 0.014140
0.076477 -0.293892 0.043099
0.068945 -0.347563 0.001852
0.071464 -0.306444 0.032701
0.086027 -0.290017 0.034284
0.078484 -0.262694 0.057831
0.077726 -0.304822 0.017388
0.081955 -0.274756 0.038879
0.040605 0.303279 -0.113207
0.063008 0.301209 -0.107358
0.028570 0.291230 -0.120696
0.049655 0.292643 -0.120662
0.076697 0.304816 -0.096434
0.093943 0.299992 -0.086674
0.093446 0.285140 -0.104405
0.106070 0.287614 -0.096418
-0.051730 0.396335 -0.003523
-0.050703 0.409259 -0.013975
-0.046257 0.364713 0.003236
-0.045795 0.378512 0.003188
-0.048889 0.439793 -0.013538
-0.041059 0.451676 -0.025214
-0.057072 0.417447 -0.027090
-0.050245 0.435698 -0.029740
0.139408 0.149662 -0.088745
0.148329 0.158044 -0.102137
0.157551 0.132103 -0.079718
0.166234 0.143386 -0.092994
0.176454 0.162992 -0.097647
0.174627 0.185719 -0.087073
0.193146 0.147508 -0.092356
0.190527 0.169053 -0.087238
-0.117513 0.277961 -0.032058
-0.104790 0.287242 -0.038639
-0.121273 0.262934 -0.039192
-0.108697 0.273592 -0.047977
-0.085882 0.301106 -0.027229
-0.066435 0.306595 -0.038373
-0.091956 0.298268 -0.039271
-0.077667 0.301646 -0.045521
-0.017768 0.140253 -0.109279
-0.008436 0.151678 -0.114278
-0.013627 0.114909 -0.106209
-0.004554 0.128249 -0.111886
-0.015280 0.191435 -0.120589
-0.002155 0.201386 -0.125917
-0.013063 0.171089 -0.117106
-0.001087 0.181656 -0.123040
0.024366 0.347407 -0.022016
0.027356 0.361134 -0.033292
0.020923 0.337848 -0.036817
0.019632 0.353378 -0.049459
0.028111 0.413534 -0.023306
0.029244 0.418700 -0.042082
0.026102 0.383807 -0.027721
0.028627 0.392825 -0.038982
0.065469 -0.374326 0.000203
0.077598 -0.343812 0.031592
0.066973 -0.393881 -0.000567
0.073315 -0.359855 0.024430
0.080780 -0.347804 0.016814
0.086303 -0.310679 0.049435
0.075033 -0.358652 0.009055
0.084834 -0.329055 0.038329
0.065198 -0.406062 -0.020483
0.079617 -0.366922 0.000294
0.059366 -0.416799 -0.003105
0.070968 -0.378693 0.014255
0.074895 -0.374849 -0.012232
0.085332 -0.329129 0.010575
0.068763 -0.390098 -0.030890
0.081683 -0.342437 -0.001938
-0.030669 0.203913 0.030938
-0.021849 0.215142 0.022456
-0.028985 0.185254 0.033867
-0.018574 0.196488 0.028165
-0.036095 0.242638 0.017227
-0.027774 0.255271 0.008960
-0.035251 0.224361 0.024424
-0.024122 0.233616 0.015958
-0.076940 -0.190899 0.103126
-0.081979 -0.181261 0.086600
-0.077615 -0.208708 0.107478
-0.078819 -0.201325 0.091984
-0.089190 -0.150303 0.085514
-0.088406 -0.149343 0.066279
-0.083633 -0.169046 0.090897
-0.086257 -0.163600 0.075992
-0.017568 0.271306 0.002803
-0.007589 0.284352 0.001231
-0.013646 0.253264 0.010547
-0.004926 0.266849 0.001279
-0.017008 0.325001 0.013471
-0.007853 0.339317 0.009198
-0.012451 0.303584 0.003709
-0.001501 0.317553 0.011577
0.077864 -0.190253 0.052755
0.090190 -0.181280 0.048727
0.077524 -0.222368 0.065974
0.078858 -0.205509 0.053501
0.079077 -0.142853 0.014208
0.083163 -0.131832 0.005876
0.080986 -0.163840 0.034987
0.086463 -0.153691 0.026530
-0.014535 0.404557 0.033548
-0.002213 0.414342 0.026504
-0.009897 0.375037 0.036391
0.001177 0.388232 0.033864
-0.012856 0.459359 0.001699
0.000467 0.462799 -0.013233
-0.011103 0.443790 0.016882
0.002847 0.448496 0.005558
-0.053551 -0.341231 -0.003818
-0.047610 -0.283700 0.026665
-0.054487 -0.371989 -0.019300
-0.049677 -0.308296 0.011872
-0.043717 -0.212371 0.066882
-0.036278 -0.200458 0.054190
-0.043410 -0.241727 0.057597
-0.035989 -0.227295 0.061936
0.036809 -0.235390 0.101977
0.036127 -0.221943 0.104219
0.044061 -0.259469 0.078656
0.037414 -0.246510 0.091186
0.028887 -0.159372 0.074209
0.028633 -0.147006 0.060842
0.027775 -0.190446 0.092220
0.028194 -0.176474 0.079797
-0.103977 0.152798 -0.054842
-0.104757 0.162031 -0.066871
-0.098948 0.136620 -0.053853
-0.099111 0.143560 -0.065850
-0.113739 0.196473 -0.060865
-0.106882 0.208181 -0.073875
-0.110633 0.175006 -0.062181
-0.107012 0.188196 -0.070564
-0.094332 0.012285 0.020602
-0.087572 0.025288 0.015435
-0.085323 -0.005461 0.037424
-0.084445 0.005340 0.029691
-0.080741 0.070801 0.017413
-0.078672 0.086337 0.015719
-0.085692 0.041904 0.014393
-0.081260 0.055870 0.012009
0.098911 0.227336 -0.090775
0.114600 0.231731 -0.086669
0.089838 0.206129 -0.097161
0.103577 0.214077 -0.099639
0.114881 0.275332 -0.087187
0.118802 0.273648 -0.070788
0.121740 0.256458 -0.093089
0.126820 0.254633 -0.073736
0.066580 -0.240778 0.113011
0.065733 -0.222344 0.118827
0.068396 -0.263253 0.086471
0.067711 -0.248025 0.097939
0.061500 -0.163882 0.106577
0.059788 -0.147650 0.099563
0.060143 -0.198340 0.116766
0.059712 -0.182919 0.106903
0.017177 0.215029 0.010959
0.025258 0.226074 0.003277
0.020245 0.194701 0.015778
0.029838 0.204653 0.008517
0.008274 0.257683 -0.001263
0.015990 0.269271 -0.008324
0.013060 0.236671 0.000072
0.021095 0.248182 -0.007308
0.033718 -0.243747 0.049436
0.036210 -0.230495 0.063299
0.037175 -0.270996 0.023857
0.038457 -0.248571 0.037514
0.025124 -0.164399 0.026134
0.026931 -0.151408 0.013977
0.028696 -0.192057 0.044482
0.027403 -0.178658 0.034612
-0.072696 -0.294690 0.085992
-0.078629 -0.274150 0.093126
-0.076791 -0.312363 0.074011
-0.085808 -0.282989 0.081442
-0.070339 -0.251415 0.124430
-0.073921 -0.234569 0.130534
-0.072861 -0.267748 0.106606
-0.077313 -0.251441 0.106880
-0.143858 -0.026649 0.182356
-0.143510 -0.024934 0.158841
-0.124248 -0.053176 0.198972
-0.129936 -0.049062 0.178087
-0.141012 -0.010493 0.171388
-0.142575 -0.011838 0.146114
-0.105342 -0.019756 0.180003
-0.110065 -0.018949 0.155537
-0.081407 -0.091576 -0.038497
-0.074599 -0.084076 -0.053871
-0.071932 -0.111130 -0.019489
-0.066868 -0.101100 -0.034814
-0.090309 -0.058871 -0.067101
-0.084136 -0.051551 -0.080855
-0.087442 -0.075635 -0.053779
-0.079925 -0.069116 -0.069756
0.080322 0.229648 -0.026435
0.086053 0.236837 -0.038443
0.080026 0.213074 -0.026131
0.081126 0.223919 -0.040368
0.074524 0.261746 -0.038193
0.080485 0.270176 -0.046372
0.081962 0.248063 -0.031501
0.089731 0.253692 -0.047204
-0.044370 0.429716 -0.080144
-0.030116 0.441409 -0.087239
-0.046814 0.405742 -0.081336
-0.035190 0.416712 -0.089469
-0.024334 0.466575 -0.057142
-0.003867 0.471322 -0.055530
-0.037711 0.453362 -0.075012
-0.023475 0.460922 -0.080667
0.087408 -0.036451 -0.063359
0.086079 -0.022202 -0.065833
0.089035 -0.054889 -0.051352
0.090752 -0.040330 -0.053771
0.074674 -0.003053 -0.084152
0.079457 0.011698 -0.078279
0.080207 -0.022186 -0.079344
0.085540 -0.006861 -0.072975
-0.141918 0.228143 0.017358
-0.134707 0.241476 0.008819
-0.142881 0.194475 0.022179
-0.142875 0.213783 0.013240
-0.114990 0.286714 -0.008572
-0.101154 0.293490 -0.018180
-0.124188 0.278363 0.008241
-0.104079 0.286333 0.001257
0.226344 0.083922 -0.050573
0.227194 0.094619 -0.065430
0.254206 0.054087 -0.046790
0.263702 0.066256 -0.065260
0.237321 0.108747 -0.055233
0.235190 0.125761 -0.067269
0.254201 0.084407 -0.053728
0.258729 0.102884 -0.068506
0.117565 0.191665 -0.087597
0.122870 0.209546 -0.092289
0.121728 0.168996 -0.086686
0.129463 0.181361 -0.092405
0.148692 0.180811 -0.078111
0.153005 0.200800 -0.074667
0.160153 0.157074 -0.075177
0.169011 0.175839 -0.073252
0.057759 -0.042196 -0.099513
0.061986 -0.025989 -0.100571
0.064315 -0.062500 -0.084091
0.065792 -0.046178 -0.087877
0.053706 0.004368 -0.105423
0.061768 0.019557 -0.100774
0.056640 -0.012419 -0.101016
0.064779 -0.000791 -0.099148
0.082429 -0.233129 0.061258
0.086350 -0.218447 0.057850
0.090460 -0.262133 0.036871
0.085480 -0.243199 0.048316
0.089204 -0.175285 0.060061
0.089856 -0.165525 0.047451
0.085656 -0.204687 0.067695
0.090618 -0.194076 0.057209
0.053407 -0.216679 0.040945
0.054336 -0.203577 0.032104
0.054760 -0.246278 0.037294
0.055659 -0.230181 0.046066
0.041782 -0.159122 -0.000897
0.041523 -0.144804 -0.015163
0.040954 -0.185344 0.023910
0.039914 -0.176300 0.008335
0.085120 -0.242761 0.082401
0.085001 -0.223517 0.091826
0.090568 -0.272574 0.056568
0.086616 -0.255029 0.071288
0.095925 -0.098297 0.045662
0.097967 -0.090512 0.033362
