ply
format ascii 1.0
element vertex 1681
property float x
property float y
property float z
end_header
-0.002667 -0.016522 0.040391
0.005799 -0.004260 0.039025
0.000500 0.052815 0.045185
0.013328 0.061476 0.042139
-0.002610 0.032470 0.038566
0.011667 0.039272 0.035066
-0.025105 -0.069049 0.061611
-0.019934 -0.057422 0.049462
-0.014991 -0.093608 0.073536
-0.014488 -0.082571 0.062039
-0.027793 -0.016404 0.042144
-0.015411 -0.003475 0.038830
-0.025545 -0.039202 0.047941
-0.013742 -0.028819 0.043985
0.001286 0.378418 0.048053
0.016364 0.392910 0.047347
0.000611 0.359098 0.040472
0.017985 0.372679 0.043989
0.001662 0.450677 0.032618
0.013061 0.458113 0.021201
0.010391 0.428109 0.043727
0.017438 0.439879 0.030585
-0.010296 -0.295013 0.043292
-0.014070 -0.264265 0.076619
-0.015626 -0.309871 0.024349
-0.010115 -0.274846 0.055847
0.006725 -0.227916 0.101271
0.007310 -0.212142 0.095506
0.009987 -0.264126 0.069514
0.004877 -0.249162 0.087222
-0.052173 0.286813 -0.089376
-0.036648 0.294019 -0.088236
-0.052362 0.268109 -0.096856
-0.036826 0.277430 -0.094986
-0.041196 0.321249 -0.069368
-0.028261 0.327697 -0.069475
-0.044821 0.304819 -0.077205
-0.026616 0.309892 -0.081209
-0.092789 0.071874 -0.022700
-0.088355 0.085131 -0.029836
-0.091784 0.052502 -0.017989
-0.090748 0.063589 -0.031267
-0.093698 0.122295 -0.026049
-0.092321 0.135878 -0.029914
-0.089733 0.100567 -0.027234
-0.087319 0.114002 -0.034615
0.130139 -0.024483 0.090759
0.132878 -0.022948 0.063739
0.158986 -0.053935 0.102972
0.173347 -0.055668 0.076212
0.148203 -0.015114 0.069309
0.152022 -0.012164 0.039976
0.170269 -0.037660 0.078982
0.171283 -0.042884 0.051215
-0.061626 -0.453762 -0.070073
-0.048365 -0.435953 -0.073489
-0.047694 -0.459358 -0.048501
-0.037406 -0.455225 -0.064278
-0.057289 -0.424253 -0.074588
-0.048552 -0.387632 -0.054260
-0.041223 -0.450072 -0.073055
-0.036752 -0.418013 -0.069685
0.094378 0.262170 -0.092323
0.111836 0.263689 -0.085165
0.100369 0.240573 -0.088336
0.108741 0.250527 -0.084404
0.115181 0.216341 -0.077077
0.121244 0.229303 -0.076746
0.115800 0.182005 -0.079947
0.121406 0.200167 -0.084557
-0.119931 0.207774 -0.045256
-0.115835 0.224925 -0.055318
-0.112375 0.191961 -0.049490
-0.111827 0.207153 -0.060866
-0.126093 0.237652 -0.060881
-0.118002 0.252649 -0.066912
-0.121569 0.216934 -0.066847
-0.112761 0.233258 -0.072502
0.050057 0.011030 0.021253
0.056777 0.020922 0.009554
0.056617 -0.011857 0.032257
0.062347 -0.000237 0.020723
0.045038 0.047750 0.022651
0.055192 0.059362 0.018305
0.046403 0.029564 0.018239
0.055583 0.042285 0.006992
-0.008274 0.416234 -0.058685
-0.007091 0.426430 -0.074619
-0.007999 0.384758 -0.059308
-0.000923 0.403265 -0.063098
0.000122 0.465530 -0.066259
0.009944 0.475967 -0.062494
-0.003376 0.442395 -0.066931
0.008319 0.454601 -0.069483
0.049626 -0.435564 -0.058137
0.057933 -0.384417 -0.026835
0.055098 -0.437692 -0.023367
0.051642 -0.406587 -0.005189
0.047219 -0.396359 -0.051442
0.049310 -0.328888 -0.017353
0.047826 -0.419159 -0.062250
0.053040 -0.363446 -0.026589
0.020175 0.025404 0.032982
0.032817 0.036277 0.028765
0.022895 0.004796 0.033882
0.032704 0.015428 0.027444
0.025445 0.072398 0.041472
0.036991 0.084143 0.034821
0.023978 0.048214 0.038891
0.035925 0.058594 0.033656
-0.069104 0.063740 0.009949
-0.063018 0.076077 0.016763
-0.072306 0.034222 0.010338
-0.068232 0.049487 0.007660
-0.066350 0.115876 0.010988
-0.060678 0.128508 0.016355
-0.066865 0.090129 0.012648
-0.060887 0.103542 0.018344
0.030193 -0.148279 0.005338
0.035902 -0.140537 -0.004946
0.034543 -0.170332 0.030553
0.034012 -0.160598 0.016032
0.015877 -0.100076 -0.042843
0.019077 -0.087680 -0.055629
0.023047 -0.122073 -0.018845
0.023632 -0.109754 -0.034544
-0.044693 0.435317 0.006846
-0.039674 0.449051 0.001536
-0.037024 0.412440 0.024575
-0.035360 0.428899 0.017043
-0.018845 0.487792 -0.030287
-0.002891 0.496428 -0.028469
-0.020160 0.480149 -0.002723
-0.010107 0.490881 -0.012303
0.132378 0.005795 0.035871
0.134026 0.009036 0.011065
0.156321 -0.021274 0.052102
0.152437 -0.019867 0.029822
0.140309 0.042155 0.014834
0.147281 0.052200 -0.003805
0.152263 0.009434 0.042457
0.152726 0.010817 0.014708
-0.074941 -0.145224 0.020292
-0.070035 -0.138163 0.004434
-0.067012 -0.166418 0.039202
-0.064342 -0.157193 0.023901
-0.086061 -0.107816 -0.013897
-0.080767 -0.101664 -0.030097
-0.079879 -0.125521 0.002509
-0.074355 -0.119817 -0.013589
0.028204 0.121385 0.035979
0.034064 0.136529 0.034136
0.026309 0.094415 0.040583
0.035359 0.106198 0.035779
0.028326 0.178330 0.028263
0.039404 0.189079 0.024972
0.029685 0.152391 0.030787
0.036842 0.167208 0.028207
0.038495 0.143745 -0.104414
0.048602 0.155117 -0.104610
0.038358 0.116762 -0.099748
0.047561 0.130031 -0.100282
0.053802 0.188591 -0.105984
0.065296 0.198969 -0.107514
0.049440 0.169052 -0.108542
0.063428 0.178163 -0.102652
-0.100029 0.224205 0.016238
-0.085256 0.235795 0.011949
-0.101657 0.197594 0.013538
-0.086304 0.216431 0.013687
-0.081502 0.297727 -0.000620
-0.069599 0.303225 -0.011035
-0.082651 0.277884 0.012105
-0.068356 0.284334 0.001613
-0.160140 0.103376 -0.012355
-0.142736 0.113430 -0.028434
-0.123591 0.096798 0.001738
-0.120295 0.101675 -0.017849
-0.156478 0.124198 -0.020481
-0.145953 0.136549 -0.035957
-0.128995 0.116363 -0.010637
-0.121069 0.129583 -0.023817
-0.036075 -0.179838 0.140119
-0.040516 -0.167925 0.123843
-0.035994 -0.206276 0.147455
-0.045951 -0.193065 0.136734
-0.043181 -0.148696 0.126316
-0.054077 -0.141085 0.111181
-0.046244 -0.170023 0.141243
-0.055481 -0.153638 0.129006
-0.093226 0.143659 -0.042483
-0.095473 0.152699 -0.051957
-0.090962 0.122823 -0.044484
-0.089389 0.133391 -0.052311
-0.105717 0.182467 -0.049938
-0.106651 0.192883 -0.062549
-0.096943 0.169050 -0.052156
-0.098410 0.183335 -0.061853
-0.056618 -0.181886 0.148303
-0.063435 -0.174724 0.137149
-0.055956 -0.210299 0.146917
-0.064568 -0.192755 0.140843
-0.065217 -0.135635 0.119585
-0.072129 -0.129622 0.104715
-0.064174 -0.162927 0.129571
-0.067810 -0.150850 0.120569
-0.088795 0.089547 -0.067185
-0.081178 0.102415 -0.077872
-0.089473 0.068420 -0.068600
-0.081981 0.081002 -0.076287
-0.092888 0.135666 -0.065184
-0.087802 0.145952 -0.077152
-0.085990 0.108925 -0.065012
-0.086279 0.123804 -0.072611
0.085497 0.118299 -0.015761
0.088840 0.127635 -0.027250
0.086076 0.105039 -0.016612
0.087194 0.113402 -0.028306
0.092252 0.183758 -0.026217
0.101898 0.192648 -0.034772
0.094375 0.164860 -0.028796
0.094746 0.177546 -0.037466
0.105578 -0.078177 0.007310
0.108304 -0.068241 -0.001019
0.101199 -0.102936 0.028614
0.103115 -0.091003 0.015444
0.105592 -0.026093 -0.020941
0.103815 -0.015677 -0.032078
0.103899 -0.055461 -0.005512
0.106221 -0.044805 -0.016078
0.005090 0.200479 0.026896
0.014309 0.211196 0.024798
0.009082 0.180375 0.027619
0.018911 0.191798 0.023684
-0.002381 0.242316 0.020312
0.006793 0.254661 0.016304
0.000440 0.220716 0.021292
0.011403 0.233657 0.019322
0.067611 0.033016 0.003549
0.073791 0.044755 -0.005351
0.071378 0.011997 0.010584
0.075906 0.022545 -0.003227
0.063119 0.074932 0.014648
0.064907 0.091462 0.008565
0.066574 0.055010 0.006366
0.067500 0.069256 0.000160
0.028908 0.412686 0.031266
0.037390 0.422326 0.019591
0.024263 0.392253 0.029080
0.039447 0.401522 0.021678
0.027878 0.464873 0.017114
0.031529 0.467643 0.000051
0.030757 0.440913 0.025047
0.036706 0.448342 0.011917
-0.072451 0.186045 0.007440
-0.068557 0.199237 0.010006
-0.066873 0.159828 0.009653
-0.061776 0.175074 0.012417
-0.075922 0.241348 0.019662
-0.066700 0.249899 0.007955
-0.076524 0.221033 0.019107
-0.067824 0.228393 0.011194
0.005070 0.106482 0.042718
0.014808 0.118798 0.040915
0.005801 0.081137 0.044308
0.014837 0.093565 0.043469
0.007809 0.153978 0.033316
0.018195 0.166301 0.031009
0.009642 0.133156 0.037446
0.019980 0.144209 0.035631
0.107942 0.279928 -0.069997
0.127696 0.279937 -0.065876
0.130838 0.247683 -0.067280
0.134937 0.257701 -0.058090
0.130934 0.246642 -0.045233
0.136348 0.249923 -0.036726
0.142111 0.208284 -0.054736
0.137414 0.226021 -0.048381
-0.038494 -0.090915 0.088684
-0.037305 -0.080691 0.078999
-0.035580 -0.119419 0.108480
-0.038888 -0.105138 0.098200
-0.048133 -0.042675 0.060501
-0.041497 -0.032559 0.050694
-0.044515 -0.065515 0.073028
-0.037321 -0.055053 0.059439
-0.087365 0.285205 -0.080313
-0.071226 0.293521 -0.082570
-0.085546 0.268688 -0.086670
-0.069954 0.278229 -0.088813
-0.075795 0.310998 -0.066370
-0.056237 0.315766 -0.067773
-0.080486 0.300496 -0.074256
-0.059571 0.305291 -0.079700
0.021234 0.343489 0.001377
0.033702 0.354702 -0.005762
0.024441 0.316147 -0.001862
0.033002 0.328427 -0.003257
0.034634 0.397514 0.012209
0.038015 0.411478 0.002383
0.036899 0.387081 -0.002677
0.039606 0.397881 -0.017489
-0.084488 -0.009489 -0.096115
-0.073387 0.000590 -0.104874
-0.084706 -0.031754 -0.092846
-0.073788 -0.020981 -0.102727
-0.079480 0.032046 -0.095013
-0.066527 0.045236 -0.100078
-0.081708 0.011756 -0.096853
-0.070149 0.024480 -0.103361
0.068394 -0.089212 0.085173
0.068902 -0.075106 0.075213
0.062543 -0.118426 0.103307
0.063435 -0.102405 0.093802
0.064002 -0.035777 0.047883
0.068185 -0.023908 0.037218
0.066933 -0.062142 0.066421
0.070685 -0.049132 0.056082
-0.044206 0.377470 -0.024903
-0.041884 0.387948 -0.039411
-0.047318 0.358762 -0.023265
-0.039558 0.366854 -0.036534
-0.049502 0.438089 -0.047360
-0.040897 0.449352 -0.060251
-0.043406 0.411913 -0.043335
-0.042371 0.426608 -0.057613
-0.116488 0.254112 0.006311
-0.103923 0.267743 0.006050
-0.114216 0.232255 0.006739
-0.103651 0.246315 0.003327
-0.113909 0.295640 0.001173
-0.097993 0.303345 -0.003761
-0.112121 0.279581 0.008896
-0.095412 0.288909 0.007068
-0.021794 0.230484 -0.106167
-0.008978 0.239904 -0.108242
-0.018087 0.210158 -0.107867
-0.006794 0.221526 -0.108502
-0.024456 0.268298 -0.096917
-0.006871 0.274574 -0.097959
-0.022807 0.250367 -0.101953
-0.007966 0.258193 -0.101863
-0.155707 0.102468 0.029627
-0.161759 0.107546 0.009039
-0.137226 0.089312 0.045348
-0.132400 0.096973 0.023544
-0.150781 0.129223 0.015461
-0.152543 0.137998 -0.000687
-0.133720 0.114476 0.023830
-0.124367 0.126604 0.008585
0.020846 -0.170079 0.065866
0.023116 -0.155283 0.052900
0.024583 -0.195248 0.089669
0.022521 -0.181466 0.077709
-0.003366 -0.108095 0.008660
0.005525 -0.097689 -0.003062
0.004991 -0.121953 0.022252
0.013068 -0.111674 0.009958
-0.135803 0.268354 -0.043003
-0.127836 0.279375 -0.054413
-0.133400 0.247219 -0.051690
-0.127752 0.261727 -0.059370
-0.123601 0.302219 -0.037996
-0.106188 0.309650 -0.043088
-0.131621 0.285792 -0.040176
-0.120309 0.295698 -0.051621
-0.141101 0.227082 -0.023987
-0.130026 0.243290 -0.029323
-0.125242 0.218023 0.002324
-0.124580 0.230434 -0.011733
-0.134279 0.284501 -0.025468
-0.120505 0.299055 -0.023709
-0.131761 0.271330 -0.007118
-0.124144 0.285310 -0.010044
0.016381 -0.071092 0.043471
0.025873 -0.058930 0.046776
0.021318 -0.097090 0.054724
0.025837 -0.084451 0.054960
0.013196 -0.019901 0.042096
0.023982 -0.009458 0.036265
0.011494 -0.048172 0.046065
0.020118 -0.035102 0.045735
-0.108319 0.173212 -0.005724
-0.094261 0.194557 -0.012370
-0.099155 0.160474 -0.019777
-0.091842 0.175122 -0.025079
-0.127520 0.191057 -0.013005
-0.119074 0.212012 -0.017000
-0.117744 0.172597 -0.022449
-0.113663 0.194733 -0.024273
0.050056 -0.459821 0.012584
0.049716 -0.443959 0.012524
0.052194 -0.452607 0.046317
0.058778 -0.440066 0.033547
0.043499 -0.421133 0.015665
0.052916 -0.392808 0.027853
0.046478 -0.430337 0.034763
0.054866 -0.412080 0.030343
0.058642 0.050029 -0.098189
0.064057 0.063401 -0.098051
0.064309 0.028077 -0.103407
0.074655 0.041581 -0.098847
0.041430 0.093263 -0.097133
0.049282 0.105108 -0.096670
0.048364 0.069743 -0.096999
0.056100 0.083043 -0.095795
0.046172 0.097446 0.028283
0.053267 0.112025 0.024349
0.046755 0.072479 0.028562
0.055342 0.086700 0.021489
0.046110 0.154815 0.022458
0.054866 0.166369 0.014021
0.045246 0.124809 0.025694
0.048650 0.142177 0.023210
-0.139991 0.156785 0.002302
-0.131983 0.174739 -0.007529
-0.126587 0.147043 0.010091
-0.116853 0.163063 0.002540
-0.135035 0.195545 0.001205
-0.135070 0.209967 -0.013886
-0.127287 0.178345 0.006244
-0.117393 0.200438 0.002756
-0.015747 -0.164953 0.114419
-0.019520 -0.151090 0.102793
-0.020132 -0.197550 0.127786
-0.020747 -0.183911 0.120185
-0.016667 -0.119849 0.079074
-0.015231 -0.115725 0.059544
-0.011322 -0.156428 0.094314
-0.013733 -0.139448 0.084938
0.047321 -0.180645 0.131894
0.046548 -0.164247 0.123674
0.047634 -0.207390 0.147355
0.044348 -0.192758 0.140410
0.045532 -0.126911 0.103608
0.049342 -0.111637 0.095300
0.045209 -0.147403 0.112186
0.055508 -0.135758 0.108016
0.078425 0.149666 -0.005709
0.086453 0.160340 -0.015568
0.089763 0.126980 -0.008446
0.095461 0.135761 -0.019951
0.083566 0.200101 -0.006448
0.087147 0.210937 -0.018297
0.082779 0.181951 -0.008641
0.085245 0.193470 -0.022461
-0.070685 -0.205218 0.131049
-0.075278 -0.192323 0.117413
-0.068139 -0.222099 0.130850
-0.073231 -0.213004 0.114437
-0.077095 -0.162612 0.112609
-0.087268 -0.154597 0.097814
-0.074367 -0.180463 0.123627
-0.081807 -0.174484 0.106763
0.032449 0.198461 -0.115017
0.044725 0.207572 -0.116546
0.036873 0.174181 -0.112110
0.044453 0.187190 -0.112696
0.059857 0.228361 -0.109079
0.073968 0.237841 -0.108544
0.060310 0.210268 -0.111378
0.072259 0.220383 -0.109157
0.035600 -0.095114 0.073244
0.039297 -0.080387 0.068550
0.036421 -0.122204 0.093957
0.038491 -0.105530 0.086791
0.031984 -0.043977 0.047700
0.037372 -0.030111 0.040477
0.033323 -0.070682 0.058346
0.039730 -0.056878 0.055856
0.057439 0.116181 -0.093281
0.063749 0.127893 -0.092568
0.062582 0.095372 -0.091056
0.069132 0.106490 -0.087743
0.062505 0.163496 -0.102297
0.077505 0.173147 -0.092826
0.057927 0.143294 -0.099991
0.068387 0.153661 -0.094996
-0.099608 -0.047134 0.036328
-0.104714 -0.040418 0.018978
-0.097400 -0.062774 0.048947
-0.101949 -0.059237 0.028732
-0.099038 -0.001935 0.009730
-0.101374 0.007556 -0.005038
-0.099000 -0.027592 0.027649
-0.104458 -0.018980 0.011291
0.081175 0.166271 -0.006630
0.091138 0.174548 -0.016980
0.082474 0.140265 -0.015049
0.092337 0.151075 -0.023505
0.101996 0.223318 -0.010842
0.109553 0.231626 -0.024784
0.097549 0.199889 -0.018567
0.101687 0.212763 -0.027475
0.086445 -0.292722 0.010472
0.089752 -0.258506 0.041705
0.085167 -0.313249 0.006797
0.090751 -0.270383 0.037242
0.077807 -0.241170 0.041271
0.077782 -0.228918 0.059780
0.082036 -0.267623 0.024451
0.079210 -0.248673 0.052069
-0.061184 0.011870 -0.108478
-0.049859 0.024941 -0.111087
-0.063733 -0.009943 -0.111546
-0.050767 0.002287 -0.114482
-0.054315 0.059055 -0.100733
-0.048148 0.076604 -0.098778
-0.055699 0.038092 -0.106146
-0.044763 0.051655 -0.105952
0.089511 0.139871 -0.058272
0.090727 0.153732 -0.065299
0.085274 0.122586 -0.063388
0.087248 0.136314 -0.070034
0.098072 0.188536 -0.052559
0.106786 0.196468 -0.062575
0.089390 0.173754 -0.056311
0.100083 0.182227 -0.066906
-0.077833 -0.159126 0.060164
-0.078289 -0.154551 0.044389
-0.069834 -0.184435 0.077128
-0.069075 -0.173405 0.058990
-0.092556 -0.124789 0.035117
-0.088935 -0.122955 0.017124
-0.086329 -0.141235 0.045434
-0.083061 -0.137821 0.028561
0.035879 -0.174966 0.121169
0.035999 -0.159910 0.112381
0.037854 -0.204072 0.133582
0.033261 -0.190884 0.128916
0.028084 -0.123640 0.079359
0.028410 -0.107440 0.073001
0.032273 -0.147558 0.101139
0.030224 -0.134292 0.091143
-0.040954 -0.011114 -0.116529
-0.028247 0.002199 -0.118608
-0.040025 -0.033423 -0.114482
-0.028133 -0.021064 -0.118414
-0.036836 0.036227 -0.109887
-0.026895 0.047952 -0.107813
-0.039756 0.012133 -0.114708
-0.027651 0.023142 -0.115406
0.116765 0.098530 -0.025996
0.120953 0.109329 -0.044766
0.126649 0.076384 -0.009543
0.130325 0.086305 -0.027783
0.131500 0.127248 -0.020938
0.138560 0.138421 -0.034208
0.139698 0.107874 -0.010252
0.146197 0.117694 -0.029107
0.060615 0.139328 0.013337
0.061670 0.151712 0.006446
0.059780 0.111336 0.013067
0.065302 0.127171 0.007303
0.050825 0.199799 0.022909
0.057344 0.211654 0.014968
0.050449 0.177133 0.022715
0.057743 0.188547 0.012886
-0.052815 -0.458374 0.037242
-0.038709 -0.446489 0.030002
-0.051098 -0.462375 0.060558
-0.038140 -0.453647 0.047750
-0.041248 -0.425992 0.015531
-0.049606 -0.391247 0.029414
-0.046697 -0.436518 0.017676
-0.044744 -0.414917 0.017520
-0.073414 0.072391 -0.086577
-0.061248 0.083896 -0.093532
-0.075697 0.052301 -0.090372
-0.064398 0.063782 -0.093708
-0.072900 0.110047 -0.086175
-0.064775 0.122022 -0.092039
-0.070929 0.093073 -0.084589
-0.062448 0.102398 -0.090642
-0.015401 0.299415 -0.086292
0.002078 0.304814 -0.083901
-0.013008 0.282643 -0.091828
-0.001282 0.291525 -0.092614
-0.009178 0.333121 -0.072985
0.007541 0.344823 -0.077125
-0.010560 0.316416 -0.078914
0.003914 0.323457 -0.079703
-0.077021 0.148162 -0.079544
-0.072375 0.158234 -0.089376
-0.074790 0.123560 -0.077903
-0.072108 0.137070 -0.086361
-0.085460 0.191049 -0.085542
-0.079665 0.202864 -0.091245
-0.078564 0.169808 -0.085211
-0.076899 0.179776 -0.092945
0.076801 -0.090330 -0.043216
0.079680 -0.079329 -0.054155
0.076107 -0.115753 -0.018494
0.079344 -0.102095 -0.029621
0.083721 -0.037612 -0.086962
0.083045 -0.022329 -0.089712
0.084663 -0.059045 -0.071319
0.089781 -0.042775 -0.073408
-0.135501 0.192448 -0.041549
-0.129855 0.205623 -0.052063
-0.124996 0.164737 -0.037362
-0.124698 0.174607 -0.050592
-0.142198 0.232411 -0.039926
-0.142985 0.248355 -0.047995
-0.145223 0.212760 -0.045904
-0.134975 0.224997 -0.055751
-0.060767 -0.379381 0.011420
-0.068322 -0.345185 0.046417
-0.056690 -0.396867 0.004303
-0.065900 -0.363240 0.036106
-0.065546 -0.339351 0.020984
-0.070064 -0.316598 0.056443
-0.060992 -0.363259 0.003801
-0.070989 -0.321883 0.039091
-0.084689 0.110314 -0.012687
-0.083619 0.123768 -0.017263
-0.084582 0.078755 -0.011651
-0.081568 0.094752 -0.014676
-0.086904 0.156633 -0.011067
-0.085849 0.170903 -0.011931
-0.085514 0.131635 -0.010441
-0.085090 0.145755 -0.016352
-0.055972 -0.254725 0.036700
-0.051061 -0.238868 0.049257
-0.057930 -0.281283 0.017037
-0.043168 -0.255739 0.041319
-0.053734 -0.201606 0.054990
-0.046278 -0.196100 0.041958
-0.052159 -0.226426 0.057450
-0.043905 -0.213001 0.054393
-0.019833 0.122261 -0.100741
-0.011037 0.135722 -0.100289
-0.014320 0.095003 -0.098532
-0.007013 0.110076 -0.098636
-0.024206 0.179203 -0.105300
-0.013705 0.189239 -0.105103
-0.018941 0.155668 -0.101383
-0.008698 0.167851 -0.100414
-0.017481 -0.069531 -0.095613
-0.004709 -0.063446 -0.105887
-0.013029 -0.082787 -0.078086
-0.002969 -0.072924 -0.089573
-0.016003 -0.033789 -0.118910
-0.004849 -0.020018 -0.119728
-0.016041 -0.051430 -0.109669
-0.004166 -0.041399 -0.114978
0.079034 0.063287 -0.066131
0.086949 0.074080 -0.063497
0.085384 0.042541 -0.072313
0.087250 0.058463 -0.074064
0.075614 0.099148 -0.074510
0.082091 0.109242 -0.068274
0.074668 0.080569 -0.069476
0.084512 0.092033 -0.063549
-0.109502 -0.010198 -0.004225
-0.111496 -0.005882 -0.020677
-0.109266 -0.031741 0.004104
-0.110079 -0.027826 -0.012197
-0.096709 0.037095 -0.017060
-0.099768 0.049068 -0.032786
-0.102268 0.020350 -0.011744
-0.104148 0.027700 -0.028139
0.031556 -0.023152 -0.121770
0.043356 -0.010585 -0.120165
0.032276 -0.045356 -0.117035
0.041134 -0.031650 -0.118547
0.027202 0.020449 -0.118360
0.040251 0.033701 -0.118703
0.028155 -0.001822 -0.124319
0.038423 0.011509 -0.120376
-0.044744 -0.444746 -0.018980
-0.038099 -0.430649 -0.029537
-0.053942 -0.451179 0.013504
-0.045917 -0.437880 0.000142
-0.026781 -0.370953 -0.028286
-0.029919 -0.316425 0.002220
-0.028652 -0.391459 -0.046747
-0.029387 -0.341405 -0.005806
-0.038959 0.094657 -0.097426
-0.028741 0.107118 -0.098116
-0.036359 0.066031 -0.100637
-0.028345 0.081061 -0.100168
-0.041437 0.156233 -0.099828
-0.032941 0.168068 -0.102134
-0.035505 0.128602 -0.097404
-0.028625 0.141907 -0.100306
-0.024647 0.037194 0.033611
-0.010753 0.047369 0.035377
-0.023814 0.009751 0.032200
-0.015994 0.023232 0.032955
-0.016392 0.085207 0.042807
-0.005553 0.096831 0.044420
-0.021068 0.059817 0.042140
-0.007408 0.068466 0.043624
0.084247 -0.054585 0.055467
0.090151 -0.046946 0.042665
0.082383 -0.081146 0.075027
0.082799 -0.068476 0.061342
0.076292 -0.013398 0.028220
0.081916 -0.003897 0.016846
0.079581 -0.035443 0.045833
0.085948 -0.027768 0.031470
0.077778 0.162837 -0.082469
0.088640 0.174033 -0.082582
0.080237 0.144008 -0.075312
0.089845 0.157154 -0.075142
0.092182 0.220336 -0.088691
0.105108 0.225722 -0.087750
0.088660 0.197740 -0.087138
0.098415 0.208025 -0.084756
-0.086518 -0.076124 0.073403
-0.090562 -0.068751 0.061381
-0.080433 -0.102007 0.091845
-0.087378 -0.095094 0.077444
-0.085740 -0.018952 0.035788
-0.088006 -0.007213 0.025277
-0.088469 -0.047124 0.050912
-0.090435 -0.034710 0.039437
0.096864 -0.118616 0.021768
0.098169 -0.107057 0.009690
0.093133 -0.138899 0.047259
0.095461 -0.130449 0.032262
0.098536 -0.072544 -0.020147
0.103275 -0.059009 -0.025991
0.099659 -0.095033 -0.002746
0.101783 -0.083648 -0.014291
0.036774 0.243056 -0.113046
0.051208 0.252609 -0.112662
0.035918 0.222995 -0.116860
0.049617 0.235181 -0.117421
0.068358 0.265257 -0.106924
0.083968 0.273112 -0.100962
0.069224 0.250076 -0.109777
0.085765 0.254963 -0.105653
-0.100464 -0.095645 0.008059
-0.097998 -0.092891 -0.011003
-0.096662 -0.110392 0.022896
-0.091170 -0.109464 0.002899
-0.107146 -0.059339 -0.020949
-0.103945 -0.055970 -0.038334
-0.103966 -0.079976 -0.004249
-0.101120 -0.076099 -0.021804
0.054332 -0.282836 0.006286
0.057926 -0.250101 0.036115
0.054621 -0.302774 -0.005288
0.057860 -0.267106 0.021170
0.031676 -0.205895 0.055762
0.032193 -0.197038 0.046641
0.039387 -0.234121 0.056296
0.038478 -0.219480 0.057916
0.011678 -0.119457 0.060059
0.017733 -0.110385 0.050234
0.016530 -0.138824 0.073232
0.021819 -0.129016 0.062284
-0.007441 -0.078161 0.019745
-0.002035 -0.066924 0.010717
-0.003430 -0.093147 0.027455
0.008636 -0.080371 0.020169
0.064853 -0.302877 0.071258
0.056775 -0.277094 0.096994
0.060662 -0.320379 0.054698
0.055271 -0.290413 0.081526
0.052057 -0.237969 0.134204
0.046873 -0.220982 0.143525
0.057329 -0.264909 0.107313
0.054197 -0.250578 0.121499
0.050306 -0.065590 0.065953
0.054679 -0.052790 0.056026
0.050229 -0.093344 0.083250
0.054749 -0.079472 0.076091
0.037651 -0.014780 0.038102
0.042120 -0.002648 0.028194
0.048587 -0.039254 0.050530
0.051598 -0.026087 0.040217
-0.046539 -0.313030 0.067692
-0.054912 -0.284728 0.095744
-0.050838 -0.328921 0.051166
-0.059249 -0.303515 0.078681
-0.043662 -0.260098 0.118145
-0.050313 -0.247352 0.130133
-0.038465 -0.295531 0.087023
-0.047456 -0.274768 0.110310
0.101373 -0.017205 -0.053860
0.097826 -0.005061 -0.061141
0.104644 -0.040741 -0.034237
0.101606 -0.029190 -0.043821
0.097730 0.012396 -0.067649
0.093388 0.027107 -0.069225
0.103993 -0.003706 -0.040375
0.098964 0.008163 -0.050776
-0.031395 -0.357201 0.014225
-0.027537 -0.332845 0.049432
-0.033891 -0.372116 -0.002612
-0.030563 -0.344862 0.034447
-0.018465 -0.325760 0.037122
-0.015680 -0.296162 0.067381
-0.021383 -0.335752 0.017796
-0.019346 -0.313157 0.049938
-0.085086 -0.122103 0.097565
-0.090179 -0.119382 0.083763
-0.080253 -0.143106 0.109529
-0.086337 -0.138121 0.094780
-0.094490 -0.085316 0.060516
-0.100114 -0.079030 0.045476
-0.092555 -0.107185 0.076830
-0.096209 -0.100995 0.061546
0.090545 0.038086 -0.054945
0.092159 0.051206 -0.058336
0.099743 0.019714 -0.043793
0.100329 0.029893 -0.048273
0.081812 0.071281 -0.042864
0.087346 0.082392 -0.052745
0.085780 0.054286 -0.041587
0.090021 0.064399 -0.051265
-0.047774 0.343369 -0.017134
-0.032504 0.353973 -0.023088
-0.041938 0.324380 -0.007413
-0.025737 0.331244 -0.014923
-0.039318 0.415240 -0.013655
-0.037078 0.423121 -0.030522
-0.038239 0.386019 -0.010735
-0.038025 0.396459 -0.027260
0.070369 0.136806 -0.085690
0.076382 0.149328 -0.085489
0.073410 0.115412 -0.078776
0.078716 0.127439 -0.077720
0.072440 0.193603 -0.099406
0.085086 0.206489 -0.096387
0.067779 0.180457 -0.096975
0.085228 0.186835 -0.092575
0.044764 -0.278007 0.070112
0.037130 -0.257488 0.092454
0.043257 -0.300022 0.054393
0.040348 -0.269524 0.083382
0.030370 -0.209697 0.111349
0.026776 -0.197602 0.106722
0.031026 -0.231845 0.113346
0.025595 -0.216852 0.113918
0.002641 -0.136500 0.026059
0.003875 -0.129915 0.012250
0.004533 -0.160208 0.045067
0.008312 -0.148427 0.030473
-0.014209 -0.097607 -0.034040
0.000806 -0.086590 -0.042473
-0.006937 -0.111052 -0.018321
0.000170 -0.094408 -0.024578
0.005212 -0.129638 0.047470
0.012988 -0.121168 0.031571
0.009394 -0.149758 0.062262
0.014991 -0.141146 0.048633
-0.007072 -0.080778 -0.012127
-0.002184 -0.069383 -0.022852
-0.009182 -0.086376 0.004151
-0.000406 -0.072965 -0.002273
0.087663 0.233077 -0.026637
0.098344 0.241699 -0.036085
0.084496 0.216198 -0.032018
0.094471 0.225272 -0.039339
0.111017 0.260651 -0.013679
0.122432 0.268580 -0.024293
0.115771 0.237787 -0.012339
0.121466 0.249898 -0.024504
-0.068266 -0.013419 0.035416
-0.059290 -0.001034 0.030483
-0.063515 -0.034220 0.055883
-0.060416 -0.020674 0.046480
-0.059701 0.040324 0.017028
-0.051263 0.052577 0.021203
-0.063951 0.013976 0.019736
-0.053622 0.025571 0.019247
0.007673 0.247260 -0.109456
0.021805 0.255351 -0.110644
0.008943 0.227626 -0.111500
0.022377 0.236358 -0.112809
0.011208 0.285626 -0.096528
0.024256 0.293331 -0.096143
0.007840 0.268450 -0.102900
0.025171 0.275666 -0.106242
0.010026 -0.110346 -0.017316
0.012368 -0.098468 -0.029225
0.007713 -0.123372 0.001091
0.011937 -0.112666 -0.005101
-0.016496 -0.080187 -0.058339
-0.004976 -0.071017 -0.070271
-0.011560 -0.079111 -0.043642
0.001050 -0.072365 -0.055363
-0.147886 0.154197 -0.029798
-0.139997 0.168269 -0.043758
-0.135695 0.138243 -0.014052
-0.128026 0.147554 -0.029634
-0.145039 0.191965 -0.024569
-0.139400 0.208201 -0.032997
-0.143513 0.164915 -0.017266
-0.134416 0.180758 -0.029470
0.071174 -0.403594 -0.042326
0.076158 -0.351678 -0.007909
0.067596 -0.422873 -0.035170
0.073217 -0.375136 -0.000503
0.084590 -0.333137 -0.003558
0.092119 -0.285300 0.022476
0.089438 -0.350487 -0.014213
0.094147 -0.306190 0.021061
0.049313 0.027799 -0.110289
0.056153 0.042295 -0.110382
0.050231 0.003060 -0.118275
0.058384 0.017179 -0.116754
0.030903 0.068668 -0.106295
0.038929 0.080103 -0.103251
0.033178 0.045175 -0.109315
0.043661 0.056332 -0.107188
-0.035560 -0.282131 0.050850
-0.037084 -0.254345 0.077912
-0.033267 -0.299034 0.036353
-0.037294 -0.268018 0.063427
-0.030525 -0.221680 0.115079
-0.029686 -0.205647 0.100957
-0.034122 -0.251373 0.097469
-0.035416 -0.236760 0.104402
0.121484 -0.017923 0.069411
0.112379 -0.021239 0.034593
0.138341 -0.037375 0.082007
0.144454 -0.041034 0.056095
0.108857 0.012440 0.013072
0.115030 0.018833 -0.010918
0.127545 -0.012403 0.042839
0.117731 -0.010843 0.015396
-0.074884 0.220926 -0.097908
-0.062388 0.233047 -0.104416
-0.068492 0.204970 -0.100804
-0.058012 0.214402 -0.104810
-0.080451 0.256239 -0.094164
-0.068142 0.266212 -0.096581
-0.077457 0.240158 -0.098892
-0.066160 0.252137 -0.100142
-0.040586 -0.090533 -0.069146
-0.028560 -0.082155 -0.081284
-0.031405 -0.101750 -0.047087
-0.027317 -0.090746 -0.062014
-0.042977 -0.055650 -0.106514
-0.030914 -0.044982 -0.112813
-0.038760 -0.074731 -0.089415
-0.028887 -0.065916 -0.102923
-0.045660 -0.376989 -0.003395
-0.046276 -0.343308 0.032058
-0.046040 -0.398059 -0.016936
-0.047437 -0.363027 0.015188
-0.044387 -0.331085 0.005911
-0.047173 -0.283402 0.034473
-0.043805 -0.357985 -0.010649
-0.043446 -0.310289 0.021359
-0.023140 0.374084 -0.060241
-0.016549 0.384945 -0.072483
-0.024319 0.352439 -0.065863
-0.011926 0.365289 -0.073581
-0.027516 0.418922 -0.052790
-0.021870 0.431353 -0.064404
-0.032162 0.393810 -0.055462
-0.027228 0.407539 -0.068364
0.084722 -0.256392 0.077857
0.080481 -0.246974 0.091224
0.091519 -0.282587 0.038780
0.084416 -0.257478 0.064256
0.080954 -0.195333 0.116765
0.082223 -0.180470 0.106279
0.077004 -0.222002 0.127458
0.079635 -0.208277 0.123841
-0.097928 0.064022 -0.044806
-0.095295 0.074444 -0.057414
-0.100598 0.045945 -0.048994
-0.095609 0.054321 -0.062283
-0.093680 0.102718 -0.043551
-0.094880 0.115512 -0.056747
-0.094664 0.083173 -0.043470
-0.092253 0.094983 -0.056988
-0.070054 -0.090014 0.095329
-0.074059 -0.084370 0.082589
-0.067366 -0.118629 0.112846
-0.071602 -0.110892 0.102040
-0.077535 -0.048174 0.059704
-0.077152 -0.031241 0.049534
-0.072182 -0.069975 0.080732
-0.076921 -0.060945 0.068577
-0.045158 0.010444 0.026153
-0.034046 0.022833 0.026817
-0.043745 -0.014387 0.039307
-0.036013 -0.002832 0.036100
-0.038457 0.062139 0.032729
-0.027461 0.073299 0.038760
-0.042653 0.038570 0.026306
-0.031095 0.050945 0.030729
-0.022357 -0.168871 0.136758
-0.024196 -0.153360 0.126928
-0.024188 -0.204542 0.144424
-0.024245 -0.189073 0.146120
-0.020783 -0.111531 0.095402
-0.026000 -0.100727 0.083993
-0.023007 -0.138726 0.115351
-0.021800 -0.128472 0.100928
-0.076666 -0.457152 -0.001110
-0.066148 -0.443157 -0.012874
-0.072152 -0.471295 0.013023
-0.060928 -0.462179 -0.000412
-0.052142 -0.386602 -0.036322
-0.051429 -0.318707 -0.004588
-0.051088 -0.405697 -0.050769
-0.053858 -0.350582 -0.022073
-0.096854 -0.071817 -0.040335
-0.090376 -0.067171 -0.059040
-0.093124 -0.089582 -0.027327
-0.087316 -0.083420 -0.044321
-0.098207 -0.033529 -0.067849
-0.091332 -0.026229 -0.082632
-0.098308 -0.051450 -0.056907
-0.091501 -0.047349 -0.074199
-0.102573 0.241520 -0.083933
-0.093242 0.252397 -0.088833
-0.096639 0.222638 -0.086332
-0.089748 0.235804 -0.091226
-0.117481 0.272958 -0.068041
-0.103155 0.282269 -0.075627
-0.113029 0.255337 -0.077803
-0.101808 0.266635 -0.081853
-0.022875 -0.286150 0.080133
-0.028991 -0.263597 0.106976
-0.028283 -0.305556 0.063115
-0.031097 -0.275139 0.092944
-0.027745 -0.230905 0.127591
-0.037860 -0.218521 0.141197
-0.030096 -0.250147 0.123591
-0.042040 -0.237404 0.131422
0.021499 -0.165271 0.082815
0.022782 -0.154055 0.072182
0.019749 -0.187034 0.100475
0.020359 -0.175743 0.089958
-0.002579 -0.102704 0.017752
0.004204 -0.091099 0.011544
0.000608 -0.117045 0.038997
0.010150 -0.105555 0.028187
0.057854 -0.460984 -0.021210
0.053923 -0.456245 -0.034792
0.076749 -0.472134 0.000159
0.074137 -0.464573 -0.015489
0.048898 -0.439301 -0.071619
0.047357 -0.387907 -0.040620
0.056702 -0.446874 -0.047609
0.053239 -0.414265 -0.029826
0.072012 -0.185757 0.053917
0.074241 -0.173581 0.044308
0.072575 -0.211891 0.066650
0.072203 -0.196173 0.064573
0.075636 -0.141023 0.006664
0.078309 -0.127936 -0.005238
0.073835 -0.163369 0.031224
0.077973 -0.148705 0.022919
-0.100040 0.007478 -0.072762
-0.091093 0.019306 -0.085489
-0.100232 -0.014626 -0.074580
-0.092910 -0.004990 -0.085348
-0.093848 0.049498 -0.074150
-0.085000 0.063048 -0.082391
-0.096830 0.030319 -0.076732
-0.087472 0.043651 -0.088138
-0.138911 -0.037764 0.163881
-0.142005 -0.034492 0.140833
-0.139134 -0.057542 0.182425
-0.147156 -0.057238 0.157067
-0.118425 -0.012545 0.134166
-0.120404 -0.014602 0.108628
-0.106063 -0.026353 0.150241
-0.106383 -0.020161 0.129240
0.096645 0.207982 -0.042533
0.109489 0.217356 -0.048979
0.091345 0.197470 -0.050803
0.098222 0.208289 -0.057411
0.121652 0.217948 -0.021546
0.127424 0.232053 -0.033845
0.118632 0.186554 -0.029878
0.121987 0.205895 -0.039550
-0.050797 0.236314 0.000261
-0.037540 0.249006 -0.001239
-0.047992 0.219849 0.006498
-0.034360 0.232658 0.004647
-0.049751 0.301741 -0.023636
-0.038392 0.313231 -0.028904
-0.042557 0.282999 -0.014407
-0.030573 0.296205 -0.018359
-0.038839 -0.464109 -0.026562
-0.030221 -0.452571 -0.043783
-0.040826 -0.473326 -0.006939
-0.026826 -0.464991 -0.020278
-0.031624 -0.432218 -0.070740
-0.038092 -0.381353 -0.043781
-0.034788 -0.431349 -0.048402
-0.036772 -0.408959 -0.038630
-0.165220 -0.066351 0.139596
-0.166981 -0.067333 0.115901
-0.150612 -0.072852 0.167507
-0.157077 -0.077630 0.142460
-0.161768 -0.038584 0.109310
-0.155858 -0.028332 0.087807
-0.145780 -0.057319 0.131236
-0.151567 -0.049119 0.114093
0.088806 -0.188770 0.095154
0.093389 -0.178819 0.084671
0.089051 -0.222469 0.102313
0.087026 -0.203931 0.105514
0.091010 -0.152295 0.050193
0.092830 -0.146384 0.035175
0.084087 -0.175168 0.058430
0.088090 -0.164548 0.053365
-0.013950 0.017559 -0.117144
-0.001754 0.032056 -0.112526
-0.016050 -0.006929 -0.120212
-0.002797 0.007432 -0.118798
-0.017959 0.065171 -0.103297
-0.009418 0.077741 -0.102405
-0.017280 0.035374 -0.110521
-0.008448 0.050162 -0.107022
-0.104987 0.168769 -0.032234
-0.099842 0.179663 -0.038858
-0.092172 0.151601 -0.028771
-0.094312 0.162168 -0.038294
-0.114456 0.209431 -0.030335
-0.107760 0.222918 -0.037384
-0.108673 0.191857 -0.036680
-0.105917 0.207095 -0.042712
0.037740 -0.316377 0.042242
0.033166 -0.282510 0.074175
0.039092 -0.333844 0.031079
0.042855 -0.300499 0.064299
0.031504 -0.245699 0.096880
0.025872 -0.230473 0.097412
0.030596 -0.266116 0.064382
0.027698 -0.246750 0.079732
0.113815 0.124662 -0.069013
0.115905 0.144129 -0.078139
0.129955 0.095366 -0.059990
0.133406 0.109810 -0.074253
0.128323 0.152728 -0.070347
0.130533 0.171339 -0.074398
0.143419 0.127750 -0.051793
0.143413 0.146153 -0.059546
0.007167 0.045342 -0.110812
0.018392 0.058444 -0.110155
0.009332 0.022005 -0.118654
0.019317 0.035719 -0.116319
0.002369 0.089826 -0.101505
0.011093 0.104063 -0.101130
0.001995 0.062674 -0.104580
0.012297 0.076223 -0.103433
0.043340 -0.389475 -0.020537
0.050442 -0.353142 0.013078
0.044876 -0.415889 -0.017863
0.051145 -0.372949 0.017732
0.041873 -0.343904 -0.026586
0.040851 -0.295281 -0.000340
0.042131 -0.371193 -0.036865
0.041743 -0.313067 -0.010318
0.093850 0.195575 -0.071460
0.107173 0.206242 -0.077545
0.088344 0.171227 -0.068347
0.095606 0.184251 -0.082710
0.084116 0.235407 -0.096986
0.089422 0.247157 -0.095302
0.075014 0.212232 -0.100395
0.087449 0.223287 -0.098611
0.060767 -0.077630 -0.080097
0.066237 -0.065861 -0.091781
0.064382 -0.091563 -0.055151
0.071228 -0.079263 -0.067927
0.054828 -0.030565 -0.115100
0.060385 -0.014403 -0.116812
0.056152 -0.057918 -0.102424
0.059756 -0.042116 -0.108745
-0.068467 -0.253556 0.084340
-0.067531 -0.237530 0.086378
-0.063314 -0.273958 0.050080
-0.061749 -0.262369 0.063099
-0.067413 -0.205313 0.082625
-0.062889 -0.195319 0.067202
-0.065038 -0.225888 0.075077
-0.060670 -0.214860 0.068716
0.100762 -0.034418 0.029031
0.105737 -0.025746 0.014519
0.098746 -0.061398 0.043456
0.102388 -0.050897 0.030343
0.088749 0.006761 0.001049
0.097494 0.016344 -0.010143
0.094795 -0.013536 0.018758
0.101436 -0.005980 0.005954
-0.081503 -0.266014 0.057577
-0.074516 -0.245698 0.054662
-0.073621 -0.284349 0.029544
-0.068124 -0.257986 0.041900
-0.071938 -0.230546 0.100942
-0.069513 -0.218079 0.092840
-0.076792 -0.251751 0.070332
-0.068610 -0.237314 0.066899
0.076950 -0.323421 0.029977
0.081902 -0.288001 0.059669
0.072405 -0.339647 0.016043
0.079877 -0.303825 0.048888
0.094534 -0.291202 0.051914
0.084102 -0.266162 0.082099
0.089012 -0.303977 0.035492
0.086500 -0.272311 0.061368
0.052708 0.315833 -0.086396
0.075552 0.315109 -0.082645
0.044054 0.303040 -0.099027
0.063690 0.306385 -0.094559
0.086806 0.320691 -0.068564
0.102617 0.318301 -0.056245
0.104875 0.303874 -0.069004
0.116655 0.304266 -0.063202
-0.046734 0.413398 -0.000779
-0.041971 0.429389 -0.005034
-0.038413 0.388436 0.018284
-0.038630 0.403145 0.012205
-0.037220 0.464867 -0.006202
-0.030980 0.476099 -0.015693
-0.047476 0.443392 -0.020342
-0.042583 0.458606 -0.025293
0.114323 0.143130 -0.037703
0.117506 0.159691 -0.053425
0.116818 0.124972 -0.032871
0.124821 0.132928 -0.056191
0.140151 0.180418 -0.045496
0.136328 0.197958 -0.049859
0.141511 0.152904 -0.036599
0.143535 0.167311 -0.050751
-0.108169 0.302839 -0.059468
-0.094089 0.310840 -0.059011
-0.110991 0.290154 -0.063910
-0.094452 0.298481 -0.071164
-0.070548 0.323510 -0.041634
-0.052487 0.330079 -0.039310
-0.082071 0.320799 -0.052737
-0.062012 0.323983 -0.056741
-0.001132 0.147553 -0.102310
0.007988 0.160587 -0.104102
0.003243 0.123020 -0.100472
0.011573 0.137086 -0.101019
-0.001696 0.202419 -0.107486
0.011340 0.212799 -0.110116
0.002593 0.181615 -0.105105
0.014074 0.196355 -0.108616
0.032044 0.368357 -0.002113
0.038276 0.377557 -0.015699
0.032124 0.346182 -0.018130
0.033191 0.362080 -0.021400
0.034733 0.426033 -0.007841
0.040343 0.434343 -0.023556
0.045148 0.405776 -0.009282
0.043102 0.416818 -0.024358
0.070630 -0.370205 0.019877
0.080228 -0.340202 0.046219
0.072876 -0.390576 0.011804
0.080199 -0.359295 0.034487
0.088222 -0.342716 0.032875
0.089517 -0.309548 0.067373
0.081545 -0.352614 0.018939
0.091663 -0.326165 0.053905
0.077197 -0.399703 -0.015304
0.090468 -0.353051 0.015222
0.070197 -0.415346 -0.014333
0.082087 -0.376520 0.012325
0.085928 -0.363649 0.001554
0.095708 -0.327389 0.030892
0.082725 -0.383778 -0.014216
0.092245 -0.334196 0.014711
-0.026538 0.212237 0.025654
-0.016430 0.225967 0.021796
-0.023591 0.194435 0.028613
-0.012550 0.206921 0.026401
-0.032098 0.258115 0.013862
-0.019708 0.269263 0.011086
-0.029505 0.236041 0.021207
-0.019444 0.247843 0.015310
-0.074278 -0.181576 0.096532
-0.081195 -0.174020 0.078766
-0.074351 -0.202259 0.102321
-0.077550 -0.193579 0.088895
-0.090632 -0.143295 0.081019
-0.089784 -0.143357 0.062264
-0.078503 -0.161381 0.089770
-0.086699 -0.156141 0.073376
-0.009823 0.285899 0.011820
0.003375 0.295705 0.011581
-0.004700 0.266474 0.016136
0.004460 0.278652 0.010158
-0.012608 0.343894 0.010473
0.000708 0.358625 0.017230
-0.006832 0.320510 0.012169
0.000824 0.337169 0.015544
0.077502 -0.190818 0.079874
0.082326 -0.178282 0.071630
0.082186 -0.219634 0.091707
0.076625 -0.203877 0.087544
0.084884 -0.129117 0.050483
0.088679 -0.115712 0.036633
0.081544 -0.156124 0.068272
0.086310 -0.143903 0.061011
-0.006084 0.419269 0.047194
-0.001000 0.434877 0.038654
-0.002025 0.399804 0.051278
0.010069 0.412214 0.044410
-0.003293 0.487993 0.008287
0.007696 0.490992 -0.003846
-0.002195 0.472945 0.027527
0.012589 0.479226 0.014448
-0.045496 -0.330366 -0.017150
-0.036168 -0.279741 0.015405
-0.045351 -0.362306 -0.030446
-0.043448 -0.301003 0.001161
-0.032915 -0.201385 0.063089
-0.029340 -0.192883 0.048160
-0.034158 -0.235320 0.059996
-0.034865 -0.221450 0.066812
0.043662 -0.233683 0.127383
0.038091 -0.219615 0.128871
0.043346 -0.255779 0.103036
0.040866 -0.242003 0.109766
0.031150 -0.160619 0.091937
0.030901 -0.144992 0.080481
0.030303 -0.185696 0.112969
0.028934 -0.172361 0.102702
-0.094574 0.169687 -0.067557
-0.093249 0.179978 -0.077738
-0.091544 0.153902 -0.064171
-0.087981 0.163909 -0.078098
-0.106954 0.210839 -0.073828
-0.101601 0.225712 -0.077623
-0.099148 0.194032 -0.075241
-0.093267 0.208145 -0.084081
-0.089085 0.024137 0.000893
-0.085739 0.037926 -0.003550
-0.085079 0.004737 0.019624
-0.080902 0.016591 0.012217
-0.075045 0.082674 0.002940
-0.075251 0.099124 0.000026
-0.081686 0.052423 -0.003462
-0.079246 0.067390 -0.003718
0.108435 0.233123 -0.045143
0.119087 0.241607 -0.053158
0.094920 0.225545 -0.057070
0.109056 0.231240 -0.062798
0.117908 0.296817 -0.049549
0.124140 0.297865 -0.038605
0.125492 0.277480 -0.051170
0.129929 0.275190 -0.038057
0.065660 -0.227019 0.136368
0.060564 -0.209584 0.137602
0.068302 -0.252195 0.111515
0.067158 -0.238208 0.123232
0.062574 -0.159579 0.122506
0.061598 -0.145698 0.114957
0.059623 -0.190668 0.140534
0.060888 -0.174731 0.133669
0.024899 0.223028 0.025944
0.032195 0.233942 0.019100
0.029248 0.200066 0.029798
0.039105 0.210227 0.024929
0.016784 0.269896 0.014970
0.025935 0.280650 0.010910
0.021424 0.246927 0.018824
0.030118 0.259384 0.014161
0.036443 -0.243573 0.065614
0.040105 -0.229531 0.074549
0.042661 -0.270458 0.033562
0.045208 -0.252084 0.053498
0.030765 -0.166738 0.044625
0.030693 -0.153125 0.031246
0.028788 -0.193923 0.065929
0.030000 -0.181313 0.055245
-0.073604 -0.281087 0.086762
-0.078742 -0.265448 0.085561
-0.074775 -0.301968 0.062137
-0.078221 -0.281108 0.073712
-0.065350 -0.247084 0.120300
-0.072333 -0.233546 0.117348
-0.068945 -0.268301 0.101578
-0.072915 -0.249682 0.102856
-0.150287 -0.022443 0.125765
-0.146235 -0.023350 0.103603
-0.122668 -0.037137 0.148195
-0.129550 -0.034120 0.124397
-0.151097 -0.001075 0.104892
-0.151446 -0.002237 0.078410
-0.132161 -0.001827 0.115518
-0.130888 -0.007169 0.090494
-0.076121 -0.091775 -0.052833
-0.069124 -0.084575 -0.067698
-0.068436 -0.110103 -0.033231
-0.062317 -0.100696 -0.047445
-0.081727 -0.052065 -0.087719
-0.071993 -0.042420 -0.098257
-0.081174 -0.070004 -0.072336
-0.072372 -0.065150 -0.086119
0.091226 0.241331 0.002419
0.101549 0.249499 -0.006685
0.090625 0.215852 -0.002704
0.092893 0.225209 -0.019281
0.082781 0.289306 -0.004309
0.094040 0.297345 -0.010815
0.093842 0.267177 0.000815
0.101883 0.276789 -0.011151
-0.027040 0.452709 -0.071917
-0.015014 0.463136 -0.075636
-0.032048 0.428796 -0.074176
-0.016938 0.440483 -0.081704
-0.014420 0.483810 -0.049557
0.002132 0.491561 -0.045594
-0.020882 0.472042 -0.062985
-0.010102 0.480794 -0.071280
0.096902 -0.040925 -0.055713
0.096199 -0.028339 -0.061580
0.098280 -0.061876 -0.038907
0.098975 -0.050198 -0.045458
0.087500 -0.007580 -0.088383
0.093793 0.006081 -0.081560
0.092114 -0.026347 -0.077477
0.093797 -0.010553 -0.073800
-0.141651 0.249667 -0.017828
-0.134899 0.265238 -0.023791
-0.135563 0.233077 -0.000308
-0.127982 0.248406 -0.006409
-0.108303 0.313322 -0.029563
-0.089585 0.320241 -0.037309
-0.116307 0.306303 -0.010430
-0.096448 0.311174 -0.018133
0.129926 0.054752 0.001247
0.128050 0.060487 -0.018964
0.145373 0.023247 0.025851
0.151259 0.028541 0.002409
0.144965 0.084740 -0.003427
0.154463 0.093356 -0.020840
0.146717 0.061094 0.010174
0.157014 0.067632 -0.010377
0.114633 0.193442 -0.045794
0.119299 0.206426 -0.057612
0.118926 0.170978 -0.041014
0.126166 0.183959 -0.058051
0.124319 0.196090 -0.021698
0.133260 0.213411 -0.033050
0.128520 0.163355 -0.031522
0.131152 0.185948 -0.037564
0.069284 -0.045891 -0.098714
0.074392 -0.028748 -0.099570
0.072787 -0.063095 -0.080349
0.077225 -0.050377 -0.087592
0.066439 0.004029 -0.109170
0.077019 0.017533 -0.104993
0.070027 -0.018668 -0.106869
0.078867 -0.004064 -0.102584
0.083540 -0.229969 0.080011
0.086270 -0.216743 0.074386
0.094100 -0.250118 0.059684
0.092587 -0.237296 0.070637
0.090679 -0.177556 0.083918
0.095785 -0.167164 0.069852
0.090710 -0.205789 0.092167
0.091801 -0.195725 0.082471
0.055809 -0.217028 0.064383
0.056375 -0.204224 0.054828
0.062101 -0.246831 0.053171
0.061378 -0.231522 0.063648
0.046574 -0.160120 0.012373
0.045938 -0.148880 -0.002429
0.043881 -0.190023 0.045729
0.043822 -0.179719 0.031543
0.078836 -0.233124 0.105946
0.081946 -0.214539 0.111069
0.093388 -0.249111 0.091955
0.090762 -0.237449 0.104585
0.111262 -0.020938 0.084232
0.113373 -0.022875 0.058926
0.143037 -0.050228 0.108092
0.150080 -0.049018 0.083143
-0.096657 -0.115953 0.061183
-0.096709 -0.112266 0.042283
-0.091519 -0.129878 0.070003
-0.092628 -0.127350 0.050876
-0.104456 -0.077277 0.030571
-0.104916 -0.077151 0.011580
-0.098685 -0.096580 0.044591
-0.101910 -0.094848 0.026196
-0.057324 0.132785 -0.092626
-0.049876 0.144399 -0.099637
-0.051462 0.108705 -0.096026
-0.044700 0.123002 -0.099697
-0.063812 0.182614 -0.098345
-0.055124 0.194135 -0.104025
-0.059358 0.161554 -0.097234
-0.048938 0.174565 -0.102425
0.030610 0.340239 -0.038249
0.034641 0.357852 -0.044567
0.034961 0.318578 -0.046791
0.038692 0.333485 -0.050523
0.023652 0.387077 -0.060097
0.024196 0.398952 -0.068174
0.027971 0.365126 -0.057355
0.021450 0.377964 -0.068810
0.082491 0.091263 -0.025083
0.090023 0.100995 -0.035636
0.087586 0.070634 -0.025487
0.087720 0.082645 -0.033316
0.087495 0.143237 -0.033661
0.097998 0.153611 -0.037113
0.090572 0.123018 -0.041095
0.094942 0.136494 -0.043343
-0.056260 0.213906 0.023169
-0.039281 0.223225 0.020391
-0.043653 0.193338 0.025557
-0.039485 0.206497 0.024729
-0.051234 0.283689 0.004691
-0.038302 0.292431 0.000301
-0.051605 0.265999 0.008569
-0.035181 0.273121 0.005642
-0.001575 -0.081376 0.033925
0.005504 -0.067500 0.027521
0.005026 -0.101457 0.043868
0.013722 -0.090432 0.034885
-0.009251 -0.046296 0.043393
0.002569 -0.035189 0.042255
-0.011456 -0.070126 0.038065
0.001440 -0.058973 0.036210
0.037003 -0.352140 0.010414
0.049288 -0.327353 0.043735
0.047142 -0.377678 -0.000179
0.051195 -0.346796 0.031516
0.036473 -0.325889 -0.004586
0.043828 -0.282805 0.020462
0.039145 -0.347573 -0.012801
0.044456 -0.300729 0.011391
-0.034446 0.114319 0.034989
-0.025661 0.126615 0.038675
-0.036623 0.087480 0.034966
-0.026589 0.099222 0.040512
-0.037599 0.167030 0.028513
-0.029664 0.179484 0.030481
-0.032594 0.142737 0.033605
-0.024579 0.156564 0.032490
-0.108687 -0.020742 -0.046704
-0.106215 -0.014309 -0.060203
-0.109314 -0.039159 -0.035123
-0.105255 -0.035684 -0.052553
-0.104876 0.028635 -0.045634
-0.100622 0.036601 -0.061316
-0.108000 0.005902 -0.053807
-0.103370 0.016700 -0.063868
-0.160263 0.057850 0.025624
-0.149472 0.066545 0.007083
-0.125006 0.048783 0.040879
-0.127202 0.055905 0.022314
-0.162352 0.085557 0.006210
-0.148656 0.092652 -0.014865
-0.124118 0.076044 0.025041
-0.123920 0.079322 0.006125
0.101284 -0.091100 0.046275
0.104480 -0.083863 0.033746
0.095768 -0.116961 0.056816
0.097203 -0.105873 0.043721
0.106277 -0.043687 0.011119
0.107997 -0.034155 -0.001205
0.104417 -0.069247 0.026702
0.107434 -0.058960 0.014527
0.044011 -0.097020 -0.058630
0.051638 -0.088263 -0.069577
0.048470 -0.115314 -0.035623
0.053476 -0.102741 -0.048221
0.035787 -0.064892 -0.100961
0.044514 -0.054700 -0.111232
0.039595 -0.081339 -0.082879
0.048724 -0.071757 -0.092091
0.084836 0.113589 -0.047925
0.089974 0.126350 -0.054746
0.083235 0.092978 -0.046078
0.089141 0.105060 -0.056215
0.092830 0.164931 -0.043432
0.105749 0.175226 -0.051764
0.091184 0.148465 -0.049965
0.101567 0.160644 -0.056782
0.039706 0.330576 -0.022135
0.041921 0.346613 -0.029598
0.038350 0.312996 -0.024178
0.048864 0.320510 -0.036492
0.037649 0.385602 -0.028742
0.035770 0.396384 -0.044078
0.041531 0.365682 -0.029998
0.038379 0.377507 -0.041111
-0.029110 0.307847 0.002175
-0.017147 0.318862 0.000269
-0.025033 0.285482 0.008143
-0.015026 0.299137 0.003348
-0.034520 0.366550 -0.011990
-0.025191 0.379928 -0.012430
-0.031810 0.343277 -0.003132
-0.023533 0.357897 -0.003244
0.058107 -0.426265 -0.005816
0.061436 -0.393826 0.010607
0.059665 -0.431829 0.010238
0.057430 -0.412998 0.010328
0.046970 -0.415433 -0.045259
0.048933 -0.364843 -0.009385
0.046879 -0.431602 -0.038103
0.055311 -0.391080 -0.005086
-0.025959 0.407318 0.034935
-0.019755 0.423201 0.036949
-0.024616 0.381012 0.035726
-0.011553 0.394225 0.041456
-0.027467 0.460449 0.014071
-0.014625 0.473577 0.015030
-0.023392 0.440615 0.026235
-0.013731 0.455273 0.027364
-0.044304 -0.470288 0.008820
-0.030855 -0.456659 0.000442
-0.050443 -0.474149 0.029200
-0.032645 -0.466401 0.022721
-0.034951 -0.400211 -0.062542
-0.037713 -0.344314 -0.026475
-0.023370 -0.418691 -0.067617
-0.033748 -0.366871 -0.042267
0.008368 -0.053072 -0.112791
0.019390 -0.038359 -0.117869
0.012007 -0.069599 -0.099192
0.022648 -0.060597 -0.109953
0.004474 -0.005577 -0.122529
0.015657 0.008259 -0.121539
0.007127 -0.029192 -0.119535
0.016925 -0.014582 -0.122635
0.079582 0.061102 -0.010136
0.076250 0.075468 -0.015682
0.074319 0.044277 -0.018195
0.079023 0.055312 -0.027520
0.070671 0.105527 0.003584
0.073554 0.118989 -0.004076
0.074965 0.084013 -0.002285
0.076926 0.096966 -0.010071
0.039846 0.286146 -0.105153
0.058066 0.291062 -0.099938
0.041427 0.266660 -0.110081
0.056108 0.277504 -0.108175
0.078518 0.299140 -0.090139
0.094042 0.303783 -0.081213
0.073831 0.286035 -0.100689
0.093708 0.286960 -0.089792
0.088316 -0.109165 -0.009711
0.091834 -0.096353 -0.019499
0.088943 -0.133135 0.014167
0.090799 -0.120490 0.002141
0.088499 -0.067457 -0.054804
0.092431 -0.054517 -0.058306
0.091201 -0.085862 -0.033400
0.092395 -0.073637 -0.041727
-0.064056 -0.350178 0.034346
-0.070321 -0.322512 0.067311
-0.061790 -0.366307 0.020261
-0.064788 -0.337358 0.057127
-0.080177 -0.325566 0.046320
-0.083180 -0.296045 0.070265
-0.079368 -0.338667 0.024329
-0.083179 -0.301528 0.049740
0.041938 0.247320 0.019109
0.053483 0.255900 0.011980
0.047060 0.226551 0.021841
0.057813 0.237421 0.014601
0.034275 0.292301 0.005629
0.045131 0.300628 0.000525
0.041903 0.271581 0.014504
0.051804 0.281513 0.005711
-0.110101 -0.046959 -0.002093
-0.110280 -0.043049 -0.020404
-0.107853 -0.063357 0.012831
-0.106677 -0.064316 -0.003365
-0.109068 0.006901 -0.025717
-0.108613 0.012788 -0.039233
-0.111238 -0.019776 -0.027460
-0.110964 -0.008774 -0.040742
-0.044760 0.206390 -0.107142
-0.034189 0.217882 -0.107562
-0.039742 0.188530 -0.104325
