ply
format ascii 1.0
element vertex 1682
property float x
property float y
property float z
end_header
-0.091807 0.252479 0.019744
-0.076168 0.262270 0.010430
-0.091468 0.234110 0.021363
-0.076869 0.244247 0.013774
0.036043 0.440077 -0.011718
0.041655 0.443877 -0.025016
0.039935 0.418466 -0.000547
0.042878 0.423920 -0.016395
0.008381 0.475350 -0.028474
0.022183 0.463136 -0.037279
0.017155 0.467623 -0.002293
0.021949 0.463684 -0.019665
-0.062123 -0.074371 -0.072895
-0.052470 -0.066286 -0.084326
-0.055893 -0.091456 -0.052968
-0.049954 -0.080889 -0.066029
-0.065572 -0.032179 -0.094670
-0.054459 -0.020407 -0.101492
-0.064617 -0.052514 -0.086198
-0.054338 -0.041137 -0.096181
0.065134 0.179832 0.009759
0.074856 0.189770 -0.002684
0.065981 0.162375 0.012624
0.073391 0.173394 0.001289
0.067674 0.216415 0.008422
0.074366 0.226459 -0.002135
0.068905 0.197817 0.009034
0.076728 0.207802 -0.002727
0.036669 0.409727 -0.044836
0.028712 0.420572 -0.054844
0.040616 0.390907 -0.040607
0.035200 0.401550 -0.058905
0.020612 0.450986 -0.061666
0.032791 0.450211 -0.056711
0.035214 0.437477 -0.031952
0.038128 0.435703 -0.048842
-0.006890 0.432558 -0.088337
0.010929 0.442377 -0.080593
-0.000860 0.409946 -0.078377
0.005461 0.422175 -0.085534
-0.001751 0.472959 -0.062285
0.016580 0.470019 -0.052304
-0.002030 0.458454 -0.081468
0.015601 0.456720 -0.071763
0.086717 -0.145366 0.076008
0.088671 -0.134119 0.065554
0.083112 -0.171802 0.084992
0.088024 -0.159712 0.079329
0.090702 -0.091939 0.056877
0.093249 -0.078400 0.045529
0.089140 -0.118713 0.071443
0.091146 -0.109134 0.059230
-0.031809 -0.137793 0.002452
-0.025319 -0.126648 -0.007899
-0.030182 -0.162337 0.024072
-0.027109 -0.148220 0.012020
-0.045957 -0.105249 -0.031616
-0.042568 -0.094422 -0.045158
-0.036250 -0.123408 -0.016186
-0.029703 -0.112755 -0.024648
0.013705 0.119882 -0.097918
0.023088 0.132858 -0.100231
0.016667 0.093724 -0.095970
0.024285 0.107661 -0.096871
0.012295 0.169823 -0.107234
0.022664 0.184650 -0.108146
0.016237 0.148390 -0.104950
0.027074 0.159695 -0.106616
-0.003651 0.009833 0.044834
0.009542 0.019374 0.044593
-0.001740 -0.016389 0.050277
0.007499 -0.004229 0.047656
0.005206 0.054387 0.055700
0.016109 0.062955 0.051032
0.000235 0.032302 0.048649
0.012653 0.041038 0.045617
-0.021912 -0.068215 0.070552
-0.015577 -0.056003 0.058937
-0.015782 -0.092824 0.078697
-0.011657 -0.080696 0.066385
-0.025028 -0.016715 0.052141
-0.013316 -0.002659 0.049371
-0.024008 -0.041154 0.059896
-0.013277 -0.029002 0.050921
0.000437 0.367926 0.040532
0.014376 0.380787 0.040619
-0.000348 0.349038 0.030092
0.010174 0.362741 0.026977
-0.000430 0.434793 0.025020
0.013558 0.440647 0.015187
-0.000142 0.408007 0.026394
0.011178 0.419090 0.019636
-0.013511 -0.308889 0.039545
-0.013202 -0.275212 0.064103
-0.014491 -0.320612 0.021541
-0.012904 -0.284793 0.045642
-0.004797 -0.246108 0.083416
-0.003462 -0.232572 0.091810
0.003772 -0.276237 0.039376
0.000794 -0.255703 0.065346
-0.056894 0.279338 -0.084905
-0.040378 0.287306 -0.085619
-0.057344 0.261458 -0.093354
-0.044429 0.270441 -0.093391
-0.044757 0.309844 -0.067077
-0.028739 0.315343 -0.072262
-0.048664 0.297252 -0.076969
-0.029462 0.301245 -0.081768
-0.093193 0.068076 -0.012005
-0.089018 0.080965 -0.015752
-0.091336 0.047495 -0.001861
-0.085886 0.057472 -0.011469
-0.091439 0.122352 -0.012693
-0.087901 0.134734 -0.020362
-0.089233 0.096419 -0.017563
-0.085187 0.110154 -0.018130
0.182008 -0.020843 0.055046
0.198195 -0.017945 0.026645
0.211749 -0.049135 0.059603
0.219188 -0.049478 0.029496
0.207575 -0.003234 0.031434
0.209312 -0.006003 0.005312
0.229036 -0.030476 0.038450
0.230932 -0.028081 0.007542
-0.056190 -0.461065 -0.054017
-0.039755 -0.449143 -0.064969
-0.046838 -0.466026 -0.032877
-0.037273 -0.459849 -0.048983
-0.055217 -0.433342 -0.057192
-0.045626 -0.386332 -0.044647
-0.050466 -0.450611 -0.053388
-0.037427 -0.423825 -0.060875
0.081793 0.251246 -0.101525
0.095823 0.256925 -0.101924
0.093500 0.228449 -0.100676
0.100140 0.242462 -0.095368
0.108702 0.206252 -0.091795
0.116989 0.217826 -0.094086
0.113979 0.170458 -0.090551
0.116770 0.189320 -0.094661
-0.122384 0.206478 -0.038719
-0.115293 0.224529 -0.045402
-0.118213 0.190708 -0.039641
-0.112279 0.204923 -0.053004
-0.126158 0.233910 -0.050487
-0.120117 0.250089 -0.055866
-0.123165 0.216231 -0.054815
-0.115477 0.230763 -0.063381
0.050579 0.012681 0.027602
0.058526 0.024274 0.016666
0.058130 -0.010065 0.036898
0.061981 0.002657 0.025020
0.045499 0.046462 0.031987
0.053488 0.060382 0.026656
0.048194 0.030183 0.026086
0.055938 0.043907 0.018024
-0.018257 0.400800 -0.069967
-0.015840 0.411365 -0.083215
-0.013918 0.371789 -0.064180
-0.010015 0.386711 -0.073427
-0.005832 0.449281 -0.065515
0.004128 0.462583 -0.066669
-0.010970 0.427961 -0.069934
-0.001945 0.441519 -0.077434
0.038248 -0.444443 -0.051489
0.048309 -0.393661 -0.026719
0.059002 -0.443329 -0.010415
0.050326 -0.420282 -0.012455
0.035659 -0.401622 -0.054729
0.040944 -0.338142 -0.028467
0.041366 -0.423617 -0.059769
0.045568 -0.367312 -0.029838
0.023047 0.026623 0.042228
0.034429 0.035837 0.035522
0.020750 0.004876 0.043648
0.033024 0.014078 0.036528
0.027071 0.070950 0.050710
0.036924 0.083287 0.045138
0.026530 0.047262 0.046844
0.037738 0.059116 0.041954
-0.064990 0.059373 0.024908
-0.060646 0.074809 0.024595
-0.068632 0.029329 0.025528
-0.064690 0.045159 0.021773
-0.062262 0.114286 0.023162
-0.056126 0.128072 0.026466
-0.063535 0.088900 0.024375
-0.056784 0.102532 0.030034
0.029216 -0.145422 -0.006869
0.034986 -0.140316 -0.018942
0.032529 -0.169381 0.013584
0.033584 -0.156220 0.001772
0.013753 -0.094328 -0.044653
0.018508 -0.083913 -0.058415
0.017338 -0.120537 -0.026638
0.019783 -0.106418 -0.041651
-0.043283 0.425000 0.007787
-0.038532 0.437122 -0.001924
-0.035619 0.400923 0.019649
-0.034306 0.417296 0.013234
-0.025681 0.472806 -0.027995
-0.008866 0.478847 -0.029793
-0.025981 0.464118 -0.004416
-0.011917 0.472634 -0.010886
0.173155 0.006615 0.011596
0.171762 0.011292 -0.014025
0.179386 -0.008994 0.021683
0.185828 -0.014701 -0.003536
0.193105 0.038464 -0.012984
0.189978 0.044891 -0.039203
0.196194 0.010665 0.004808
0.199538 0.011540 -0.018363
-0.071114 -0.144736 0.016531
-0.067741 -0.136266 0.001369
-0.064392 -0.168276 0.033697
-0.061322 -0.157435 0.019683
-0.083734 -0.105366 -0.008859
-0.077694 -0.098739 -0.024526
-0.077119 -0.123759 0.003567
-0.072091 -0.117016 -0.011301
0.028935 0.123757 0.040977
0.037890 0.137268 0.038633
0.029346 0.099750 0.045381
0.039534 0.112000 0.040532
0.029743 0.176029 0.028989
0.038562 0.188250 0.024712
0.030255 0.150214 0.033671
0.036680 0.164757 0.031143
0.032410 0.142887 -0.103933
0.043797 0.154064 -0.103238
0.034418 0.118325 -0.098477
0.042899 0.132367 -0.097403
0.045633 0.187035 -0.110600
0.055847 0.198169 -0.109580
0.040206 0.166394 -0.110533
0.052111 0.175066 -0.108357
-0.100049 0.212659 0.033484
-0.084380 0.224404 0.031985
-0.100077 0.178122 0.032616
-0.084811 0.200576 0.031317
-0.079963 0.290379 0.006343
-0.066433 0.295547 -0.003601
-0.080457 0.272545 0.021055
-0.066637 0.278536 0.009821
-0.156950 0.098342 0.022998
-0.144550 0.104538 0.006063
-0.117350 0.092674 0.033123
-0.115674 0.095579 0.013685
-0.155239 0.121079 0.010800
-0.142412 0.129342 -0.006209
-0.128735 0.110805 0.021322
-0.125040 0.118482 0.004238
-0.035942 -0.197482 0.137604
-0.040151 -0.186306 0.120815
-0.040298 -0.223770 0.128821
-0.043585 -0.208848 0.122133
-0.043718 -0.155258 0.121624
-0.049644 -0.145724 0.107138
-0.039943 -0.176286 0.136002
-0.044851 -0.167385 0.122400
-0.095107 0.142558 -0.031385
-0.095524 0.153593 -0.041009
-0.091771 0.121024 -0.030637
-0.090438 0.133231 -0.038524
-0.105724 0.182445 -0.042107
-0.104238 0.196035 -0.052984
-0.101937 0.166196 -0.042752
-0.101893 0.177473 -0.055644
-0.054596 -0.193935 0.138265
-0.061737 -0.185458 0.128915
-0.058243 -0.228213 0.130888
-0.060625 -0.210644 0.132164
-0.062847 -0.146880 0.117351
-0.070888 -0.135647 0.103996
-0.059783 -0.173053 0.125072
-0.065110 -0.161374 0.116246
-0.087042 0.086718 -0.055343
-0.082054 0.099438 -0.064381
-0.089147 0.066613 -0.054430
-0.082154 0.078002 -0.065833
-0.095108 0.131242 -0.050694
-0.091432 0.140822 -0.063096
-0.089027 0.107409 -0.054486
-0.088811 0.123827 -0.064653
0.082255 0.119136 -0.014605
0.087082 0.131177 -0.023597
0.085993 0.099936 -0.026427
0.087091 0.114327 -0.030378
0.087270 0.182284 -0.034433
0.091609 0.192482 -0.041424
0.089388 0.165422 -0.034430
0.096226 0.174901 -0.042112
0.102728 -0.080466 0.005930
0.103588 -0.067930 -0.000608
0.098716 -0.102615 0.026259
0.102147 -0.091151 0.015233
0.104984 -0.027806 -0.019655
0.104758 -0.014055 -0.027735
0.103795 -0.056459 -0.007861
0.104761 -0.043792 -0.015262
0.004940 0.196953 0.027172
0.013854 0.207911 0.024489
0.009179 0.175069 0.030665
0.017347 0.186983 0.028197
-0.000918 0.238855 0.016047
0.008078 0.250550 0.011152
0.002969 0.221555 0.021051
0.013081 0.229515 0.015317
0.068206 0.036258 0.010162
0.070919 0.046555 0.001244
0.070639 0.016294 0.016344
0.074931 0.025659 0.003407
0.061417 0.075739 0.021026
0.065325 0.090591 0.014399
0.065906 0.058157 0.014335
0.068481 0.072184 0.007931
0.029325 0.396925 0.024136
0.037867 0.404839 0.010741
0.033742 0.371187 0.019835
0.039144 0.383891 0.010085
0.025835 0.446783 0.011153
0.029532 0.452704 -0.005482
0.028395 0.424245 0.016302
0.034536 0.432400 0.002406
-0.068824 0.181029 0.017321
-0.063768 0.195515 0.022117
-0.064414 0.154888 0.021731
-0.059817 0.170030 0.022732
-0.072298 0.232526 0.025514
-0.062111 0.245999 0.018691
-0.070316 0.208040 0.029160
-0.062555 0.220694 0.021697
0.009703 0.103642 0.050221
0.019141 0.114990 0.047606
0.006615 0.078901 0.053713
0.019182 0.089264 0.050520
0.009968 0.151893 0.037115
0.019331 0.164354 0.035155
0.011159 0.128384 0.042781
0.021868 0.140360 0.041431
0.122522 0.259043 -0.083370
0.126302 0.267871 -0.074776
0.126951 0.237860 -0.084831
0.130651 0.247368 -0.069823
0.135820 0.221268 -0.064692
0.131798 0.236366 -0.053877
0.143818 0.194852 -0.072865
0.142739 0.210434 -0.065497
-0.031508 -0.092849 0.092255
-0.030522 -0.080471 0.083474
-0.033057 -0.121902 0.107402
-0.032446 -0.108778 0.095013
-0.043196 -0.041552 0.065243
-0.034350 -0.030907 0.056821
-0.039089 -0.065464 0.078802
-0.032624 -0.053612 0.067839
-0.091433 0.277068 -0.072565
-0.075101 0.286289 -0.075491
-0.089762 0.264574 -0.081902
-0.075566 0.273445 -0.084313
-0.078463 0.305328 -0.058727
-0.058550 0.308946 -0.063157
-0.086488 0.291861 -0.065646
-0.065707 0.298755 -0.072485
0.016269 0.327624 -0.004091
0.026083 0.339650 -0.009958
0.026166 0.305448 -0.007968
0.030778 0.317917 -0.017511
0.027000 0.386823 0.002417
0.035854 0.399076 -0.005696
0.033255 0.372494 -0.006270
0.032440 0.383113 -0.021326
-0.084578 -0.011548 -0.082554
-0.075383 -0.000530 -0.091087
-0.085272 -0.031701 -0.078064
-0.075791 -0.020764 -0.089189
-0.079450 0.031049 -0.080574
-0.068537 0.045027 -0.087059
-0.081828 0.010610 -0.083675
-0.070747 0.024601 -0.090550
0.068735 -0.092349 0.079171
0.071425 -0.077606 0.070612
0.064911 -0.124518 0.093559
0.064663 -0.106997 0.086963
0.064361 -0.037162 0.047640
0.070010 -0.024791 0.038011
0.066742 -0.064743 0.063455
0.071867 -0.051094 0.053182
-0.047104 0.368553 -0.030105
-0.045322 0.376813 -0.048601
-0.047593 0.348792 -0.029335
-0.040112 0.359536 -0.040638
-0.049963 0.427613 -0.053470
-0.045491 0.437562 -0.064056
-0.049278 0.404924 -0.046174
-0.043980 0.416092 -0.058338
-0.116568 0.248289 0.017853
-0.103596 0.260818 0.016445
-0.113246 0.221464 0.027392
-0.103422 0.235110 0.024483
-0.112402 0.287097 0.015949
-0.097149 0.294818 0.006497
-0.107865 0.273528 0.023821
-0.093292 0.282268 0.017563
-0.026686 0.225923 -0.108986
-0.013237 0.235112 -0.109605
-0.023080 0.205094 -0.109409
-0.012776 0.218273 -0.111510
-0.027904 0.262132 -0.099881
-0.010797 0.268874 -0.101699
-0.026780 0.245308 -0.104540
-0.011301 0.252970 -0.106900
-0.149771 0.093932 0.062358
-0.158077 0.100154 0.042085
-0.131984 0.078731 0.074868
-0.121614 0.088193 0.055314
-0.148139 0.123199 0.046355
-0.153796 0.127751 0.029182
-0.135284 0.104498 0.059505
-0.129079 0.118265 0.043910
0.021719 -0.171596 0.052696
0.022601 -0.159545 0.042972
0.023372 -0.203433 0.069057
0.022333 -0.188704 0.061433
0.000092 -0.104935 0.007716
0.005097 -0.093911 -0.004437
0.008627 -0.122330 0.020271
0.010489 -0.113291 0.004470
-0.136463 0.261196 -0.030402
-0.128712 0.276894 -0.039191
-0.135475 0.242460 -0.040071
-0.129176 0.259117 -0.043755
-0.124098 0.292808 -0.023179
-0.109964 0.302579 -0.027768
-0.127470 0.279519 -0.024215
-0.118551 0.292284 -0.037205
-0.138475 0.228971 -0.001780
-0.128627 0.245824 -0.005620
-0.135132 0.201250 0.005249
-0.133802 0.215217 -0.005230
-0.133248 0.274346 -0.008381
-0.122178 0.290885 -0.007548
-0.128473 0.260379 0.008367
-0.119947 0.273760 0.003090
0.018438 -0.072335 0.052109
0.025109 -0.058496 0.048698
0.023416 -0.100773 0.058317
0.027756 -0.086550 0.055663
0.015751 -0.019314 0.049496
0.026212 -0.007989 0.042214
0.015369 -0.045548 0.052976
0.024278 -0.032988 0.049274
-0.113481 0.154974 0.017142
-0.103946 0.168417 0.008091
-0.109975 0.129880 0.013368
-0.103767 0.146793 0.006471
-0.117585 0.196379 0.010126
-0.107261 0.215767 0.006683
-0.114944 0.178015 0.012603
-0.103717 0.194132 0.003734
0.038824 -0.467801 0.026271
0.035764 -0.460158 0.005567
0.039196 -0.462030 0.051495
0.048328 -0.451803 0.036546
0.033912 -0.442446 0.004165
0.033354 -0.420095 0.006684
0.030672 -0.452172 0.031158
0.034721 -0.435232 0.023109
0.052806 0.052937 -0.090816
0.057778 0.066445 -0.090220
0.058541 0.030968 -0.095014
0.068020 0.044013 -0.090051
0.037902 0.098255 -0.093553
0.046452 0.108071 -0.091381
0.043250 0.074067 -0.093199
0.051143 0.086857 -0.090770
0.045944 0.095018 0.035394
0.053525 0.106465 0.029802
0.045570 0.072114 0.035053
0.053108 0.084314 0.028464
0.046158 0.154763 0.026484
0.054768 0.166158 0.018891
0.044575 0.125703 0.029817
0.049112 0.142454 0.026592
-0.140044 0.144959 0.033445
-0.133602 0.159595 0.023730
-0.123576 0.134318 0.042100
-0.120249 0.147826 0.035176
-0.127579 0.202380 0.023768
-0.123996 0.216382 0.015357
-0.123000 0.167246 0.033789
-0.124320 0.183476 0.024322
-0.014749 -0.172510 0.107588
-0.018085 -0.158509 0.094830
-0.018523 -0.205284 0.112504
-0.017561 -0.188895 0.105886
-0.011159 -0.123445 0.076561
-0.009029 -0.111604 0.063550
-0.007767 -0.161480 0.090906
-0.010555 -0.144329 0.081710
0.042263 -0.195099 0.120035
0.045928 -0.180403 0.115506
0.047356 -0.218262 0.125027
0.050523 -0.206229 0.122915
0.050755 -0.131163 0.094646
0.051831 -0.117028 0.086323
0.043866 -0.157250 0.102868
0.048458 -0.143370 0.096530
0.073227 0.155115 0.000988
0.078324 0.166750 -0.007627
0.072671 0.133891 0.003067
0.077056 0.144528 -0.007530
0.082571 0.197800 -0.014899
0.086441 0.207516 -0.030610
0.079916 0.181002 -0.015665
0.082753 0.191404 -0.030444
-0.070090 -0.211344 0.118632
-0.075721 -0.200524 0.105720
-0.071728 -0.236996 0.103201
-0.073474 -0.222858 0.103904
-0.074392 -0.169085 0.107751
-0.081325 -0.160587 0.093184
-0.070841 -0.190767 0.114068
-0.078099 -0.179223 0.099536
0.028582 0.201230 -0.115583
0.044152 0.208869 -0.112771
0.028548 0.173899 -0.112846
0.035161 0.187134 -0.116380
0.058290 0.223354 -0.113607
0.068887 0.233135 -0.111516
0.056522 0.205688 -0.116003
0.067457 0.214348 -0.113636
0.037076 -0.097312 0.068540
0.042841 -0.082780 0.068037
0.037521 -0.126728 0.084239
0.041006 -0.108741 0.078804
0.035514 -0.045388 0.055317
0.039764 -0.030883 0.046460
0.034440 -0.070864 0.059416
0.040779 -0.057916 0.052233
0.052746 0.119666 -0.092376
0.057107 0.132584 -0.090030
0.059481 0.097445 -0.087429
0.063359 0.110106 -0.082619
0.054021 0.161196 -0.100316
0.072622 0.169554 -0.094959
0.054075 0.143915 -0.098675
0.065794 0.154925 -0.093434
-0.095944 -0.052118 0.048312
-0.100705 -0.046493 0.031904
-0.092694 -0.071303 0.059583
-0.096913 -0.066703 0.044501
-0.095540 -0.005695 0.025323
-0.098329 0.004863 0.012319
-0.094149 -0.032047 0.040989
-0.097357 -0.019930 0.028057
0.081756 0.161356 -0.016973
0.086622 0.173429 -0.024547
0.083650 0.142617 -0.018316
0.089688 0.153690 -0.025606
0.096885 0.214211 -0.021394
0.099876 0.225902 -0.035019
0.094373 0.196354 -0.028003
0.098629 0.210259 -0.038230
0.078197 -0.299702 -0.002514
0.085835 -0.268110 0.027071
0.076494 -0.323733 -0.007170
0.080175 -0.277917 0.020792
0.071417 -0.241697 0.041708
0.072732 -0.226506 0.047374
0.074160 -0.267739 0.015173
0.076295 -0.249192 0.033480
-0.063130 0.012011 -0.093719
-0.052248 0.024667 -0.095799
-0.064930 -0.009905 -0.096374
-0.053439 0.001688 -0.099958
-0.055660 0.062096 -0.083027
-0.048745 0.078943 -0.084011
-0.056970 0.038349 -0.088729
-0.047280 0.052466 -0.089530
0.089344 0.140142 -0.057774
0.086774 0.152957 -0.064989
0.083375 0.124402 -0.062010
0.079786 0.136634 -0.066680
0.097580 0.186406 -0.050403
0.105935 0.196042 -0.063083
0.088117 0.170337 -0.065945
0.098484 0.180999 -0.073962
-0.076709 -0.162482 0.052521
-0.074873 -0.157449 0.038454
-0.067823 -0.188032 0.069486
-0.067362 -0.176979 0.055294
-0.089370 -0.128416 0.032873
-0.085085 -0.124810 0.017439
-0.083735 -0.147464 0.042623
-0.080181 -0.141022 0.027891
0.036475 -0.181463 0.104668
0.036605 -0.167718 0.097319
0.037026 -0.212970 0.113677
0.036451 -0.199703 0.105722
0.030336 -0.125429 0.067842
0.034322 -0.110245 0.061689
0.030880 -0.153309 0.088209
0.030352 -0.138161 0.078817
-0.042631 -0.009056 -0.104445
-0.031266 0.004977 -0.106030
-0.042825 -0.029651 -0.102697
-0.030126 -0.017340 -0.106523
-0.040309 0.037237 -0.094101
-0.030737 0.051724 -0.092580
-0.042476 0.013596 -0.101138
-0.032075 0.025361 -0.100685
0.137014 0.096419 -0.042274
0.134942 0.103484 -0.064566
0.147973 0.073014 -0.030746
0.149889 0.079488 -0.051762
0.151123 0.122507 -0.042571
0.160000 0.138469 -0.049966
0.161429 0.103938 -0.032403
0.171682 0.115917 -0.049697
0.058854 0.136155 0.019835
0.064126 0.147703 0.012286
0.058565 0.110604 0.022072
0.061683 0.124026 0.016203
0.048908 0.195800 0.021393
0.058246 0.207671 0.014745
0.048238 0.176651 0.024588
0.058291 0.185767 0.016832
-0.055549 -0.463865 0.047380
-0.041077 -0.452212 0.038777
-0.052374 -0.471049 0.068419
-0.038767 -0.463295 0.053892
-0.049066 -0.427983 0.034499
-0.050567 -0.400975 0.035574
-0.056099 -0.445545 0.028900
-0.050130 -0.425321 0.019304
-0.075357 0.066785 -0.070041
-0.064605 0.079145 -0.078014
-0.077753 0.047139 -0.072572
-0.067772 0.059113 -0.079204
-0.074516 0.108662 -0.074617
-0.067832 0.119572 -0.082761
-0.072457 0.090753 -0.074023
-0.064445 0.101329 -0.081091
-0.017933 0.292666 -0.088423
0.001057 0.298899 -0.090166
-0.021636 0.277101 -0.094957
-0.007285 0.287167 -0.097450
-0.009907 0.323827 -0.077550
0.007775 0.333468 -0.082970
-0.011215 0.307125 -0.082865
0.003175 0.315960 -0.081388
-0.081695 0.142432 -0.071608
-0.076129 0.153096 -0.082378
-0.079225 0.122263 -0.066160
-0.075302 0.134453 -0.080522
-0.088262 0.185829 -0.076391
-0.082846 0.196947 -0.084022
-0.082159 0.166012 -0.075945
-0.079213 0.176944 -0.085151
0.079154 -0.082931 -0.046754
0.080712 -0.070901 -0.056916
0.078562 -0.107001 -0.024955
0.082136 -0.093813 -0.034105
0.080016 -0.027871 -0.079009
0.076916 -0.012780 -0.082086
0.080973 -0.053271 -0.067157
0.084745 -0.036077 -0.069304
-0.130536 0.190631 -0.011649
-0.131697 0.198042 -0.026177
-0.125071 0.162295 -0.014672
-0.125639 0.177521 -0.024279
-0.139019 0.230118 -0.020466
-0.133053 0.247641 -0.024999
-0.136919 0.211678 -0.025951
-0.130395 0.223486 -0.038498
-0.060628 -0.387786 0.014882
-0.063278 -0.353186 0.044872
-0.059899 -0.404569 0.008759
-0.068141 -0.366109 0.034342
-0.062855 -0.348075 0.027895
-0.065037 -0.313768 0.050497
-0.058849 -0.372278 0.007906
-0.067018 -0.327141 0.042610
-0.082666 0.101928 -0.000039
-0.081238 0.117012 -0.001592
-0.083817 0.071719 0.002368
-0.081687 0.087188 -0.000978
-0.090398 0.154226 -0.003951
-0.084315 0.168989 -0.003544
-0.083544 0.130645 -0.001084
-0.082927 0.143682 -0.004859
-0.056450 -0.256304 0.032135
-0.050351 -0.240328 0.042574
-0.055034 -0.286760 0.013161
-0.047038 -0.258900 0.037302
-0.049658 -0.198168 0.046565
-0.042415 -0.194212 0.034985
-0.054074 -0.223550 0.046239
-0.041776 -0.213774 0.040617
-0.024712 0.122258 -0.095774
-0.015227 0.137337 -0.098085
-0.019963 0.098222 -0.093829
-0.010950 0.112513 -0.094677
-0.028615 0.177852 -0.103386
-0.017017 0.188225 -0.106885
-0.023542 0.155289 -0.098806
-0.013727 0.168491 -0.101520
-0.018439 -0.063337 -0.086965
-0.005614 -0.056451 -0.097574
-0.015806 -0.071749 -0.072228
-0.002143 -0.064890 -0.083599
-0.020108 -0.028139 -0.105061
-0.009610 -0.016088 -0.107282
-0.018853 -0.046640 -0.098651
-0.006959 -0.037567 -0.104770
0.075805 0.067267 -0.059787
0.084119 0.079470 -0.057742
0.081594 0.049057 -0.066730
0.082682 0.062832 -0.068596
0.070462 0.105974 -0.069578
0.076950 0.117804 -0.067767
0.072633 0.086310 -0.067147
0.081257 0.097810 -0.062186
-0.105437 -0.016761 0.010500
-0.105939 -0.006991 -0.001369
-0.104075 -0.033988 0.020916
-0.107176 -0.031521 0.001966
-0.094524 0.031828 0.001164
-0.098322 0.043978 -0.016331
-0.101352 0.013155 0.000339
-0.102440 0.024650 -0.012009
0.025961 -0.020988 -0.110948
0.036910 -0.007422 -0.112044
0.028639 -0.040150 -0.106555
0.037499 -0.025669 -0.109092
0.019680 0.024505 -0.106814
0.031178 0.036959 -0.106490
0.019790 0.001614 -0.112018
0.031876 0.015613 -0.109466
-0.042996 -0.455574 -0.015479
-0.039621 -0.448319 -0.030916
-0.050589 -0.461785 0.019565
-0.039958 -0.450954 0.004922
-0.030734 -0.382857 -0.019855
-0.027854 -0.317298 0.006385
-0.026097 -0.403187 -0.034777
-0.030947 -0.347402 -0.003560
-0.043452 0.092449 -0.088621
-0.032918 0.105828 -0.092138
-0.038585 0.068241 -0.089142
-0.029357 0.082635 -0.090933
-0.044471 0.154540 -0.096991
-0.037164 0.167803 -0.099234
-0.039091 0.125540 -0.093322
-0.032983 0.139800 -0.097106
-0.020586 0.036436 0.045714
-0.007924 0.045577 0.048828
-0.020831 0.009174 0.042777
-0.012654 0.023651 0.045370
-0.012996 0.085212 0.050967
-0.001063 0.094553 0.052070
-0.017080 0.057773 0.050858
-0.005105 0.068047 0.052172
0.083222 -0.059981 0.056713
0.088330 -0.050833 0.044399
0.084289 -0.088221 0.071956
0.084945 -0.075336 0.060276
0.075344 -0.010883 0.031421
0.079187 0.000099 0.018993
0.080763 -0.037622 0.044447
0.084171 -0.024050 0.032633
0.075995 0.159908 -0.078236
0.088996 0.172058 -0.075074
0.079708 0.143554 -0.076791
0.086287 0.157616 -0.077116
0.084876 0.208284 -0.093273
0.096761 0.217105 -0.094619
0.081222 0.188457 -0.094439
0.091783 0.196568 -0.096758
-0.080950 -0.080073 0.079149
-0.083783 -0.070091 0.068687
-0.077234 -0.107765 0.095035
-0.083453 -0.096809 0.082841
-0.080366 -0.025609 0.050127
-0.083361 -0.013060 0.041609
-0.082628 -0.055003 0.067012
-0.085645 -0.042913 0.055732
0.096526 -0.117007 0.019010
0.095641 -0.104167 0.005613
0.092946 -0.136577 0.042936
0.094810 -0.123940 0.033980
0.098313 -0.068720 -0.019149
0.099856 -0.055891 -0.025424
0.097903 -0.093447 -0.004486
0.099521 -0.081318 -0.013791
0.031979 0.233082 -0.119669
0.045231 0.245596 -0.119389
0.032862 0.216536 -0.120059
0.047331 0.225435 -0.120669
0.059400 0.259654 -0.115881
0.077761 0.267938 -0.110639
0.061128 0.240311 -0.118634
0.076089 0.247997 -0.114835
-0.097823 -0.096133 0.012153
-0.093605 -0.092369 -0.004635
-0.093785 -0.111652 0.021747
-0.089614 -0.109707 0.005294
-0.104414 -0.061585 -0.010171
-0.101858 -0.056203 -0.027358
-0.101876 -0.079651 0.000791
-0.098731 -0.073430 -0.017236
0.052693 -0.291964 -0.009928
0.055024 -0.256172 0.016788
0.049768 -0.312596 -0.015735
0.056570 -0.273304 0.004868
0.034689 -0.208844 0.037419
0.032990 -0.197690 0.029757
0.037370 -0.237946 0.036678
0.040397 -0.224503 0.037910
0.013127 -0.121487 0.056946
0.019144 -0.110603 0.046770
0.017465 -0.141242 0.065656
0.021913 -0.133345 0.053917
-0.006176 -0.079649 0.030336
0.002349 -0.066819 0.023231
-0.001406 -0.098458 0.036832
0.010416 -0.085857 0.029368
0.057062 -0.312777 0.056350
0.050671 -0.281157 0.079086
0.054608 -0.331092 0.042959
0.053098 -0.298737 0.065814
0.050489 -0.248373 0.110619
0.050469 -0.233184 0.120336
0.064575 -0.281659 0.082505
0.056086 -0.264131 0.096605
0.051691 -0.067165 0.063785
0.055015 -0.052492 0.053708
0.052791 -0.096851 0.077289
0.055607 -0.083102 0.068890
0.040282 -0.015304 0.042941
0.043861 -0.000966 0.033666
0.049858 -0.038049 0.050748
0.052961 -0.022610 0.041017
-0.041498 -0.319701 0.067223
-0.050123 -0.293714 0.091556
-0.045763 -0.337797 0.056134
-0.055153 -0.314445 0.076431
-0.040142 -0.274639 0.100620
-0.047877 -0.256911 0.116910
-0.044187 -0.299437 0.075690
-0.057756 -0.274231 0.102646
0.097447 -0.016468 -0.044833
0.095588 -0.002242 -0.051704
0.100673 -0.039945 -0.028446
0.101425 -0.027605 -0.038587
0.093012 0.014162 -0.057589
0.091432 0.029074 -0.060163
0.100540 -0.000854 -0.035815
0.098048 0.013894 -0.042642
-0.028211 -0.368271 0.012181
-0.025434 -0.339338 0.047420
-0.029474 -0.383830 -0.000764
-0.024323 -0.354895 0.031035
-0.017538 -0.333845 0.032776
-0.019138 -0.305301 0.068555
-0.023144 -0.347413 0.015920
-0.022121 -0.323423 0.054383
-0.081243 -0.125372 0.092979
-0.087062 -0.123725 0.074698
-0.077747 -0.147931 0.103043
-0.084827 -0.139584 0.086785
-0.090287 -0.089810 0.067423
-0.094955 -0.084532 0.051829
-0.088652 -0.110451 0.079051
-0.092172 -0.104859 0.063592
0.082915 0.044511 -0.044282
0.086270 0.053775 -0.053683
0.088898 0.027900 -0.037684
0.095159 0.038076 -0.046364
0.078526 0.077042 -0.037092
0.087795 0.087019 -0.043612
0.079690 0.059482 -0.035328
0.085066 0.069380 -0.046629
-0.048400 0.330916 -0.027479
-0.033745 0.343503 -0.029851
-0.033179 0.316112 -0.009507
-0.031464 0.328665 -0.020133
-0.037995 0.388421 -0.006142
-0.039446 0.402104 -0.017638
-0.040006 0.373882 -0.014157
-0.037556 0.383341 -0.028746
0.068071 0.135768 -0.084835
0.070070 0.150001 -0.085576
0.067898 0.117017 -0.082071
0.074594 0.127983 -0.079037
0.063914 0.188593 -0.106368
0.077529 0.198607 -0.103271
0.061049 0.174628 -0.102210
0.073932 0.185395 -0.100408
0.041995 -0.286730 0.052980
0.034907 -0.260709 0.079893
0.036582 -0.303896 0.040236
0.036329 -0.271670 0.065071
0.029680 -0.210492 0.094999
0.026356 -0.196765 0.082792
0.032213 -0.227377 0.087392
0.027254 -0.213304 0.079796
0.001328 -0.136347 0.020375
-0.003005 -0.123873 0.009252
0.003310 -0.159384 0.037015
0.008358 -0.146787 0.026282
-0.015887 -0.093135 -0.029286
-0.004441 -0.080055 -0.037284
-0.009771 -0.106428 -0.012181
-0.003320 -0.091297 -0.019446
0.001795 -0.127706 0.044315
0.011025 -0.116894 0.034687
0.007998 -0.150097 0.053276
0.013142 -0.140093 0.040035
-0.009547 -0.081038 -0.003583
-0.002046 -0.069838 -0.012183
-0.005597 -0.091969 0.008181
0.003809 -0.076998 0.003612
0.086591 0.221324 -0.041390
0.096156 0.232601 -0.049650
0.082493 0.205736 -0.049642
0.091285 0.216867 -0.057076
0.107426 0.245781 -0.027736
0.117132 0.257364 -0.042180
0.112380 0.230290 -0.035440
0.114362 0.238941 -0.045524
-0.066658 -0.015806 0.046940
-0.057378 -0.003150 0.042460
-0.060474 -0.035154 0.066920
-0.055666 -0.021684 0.056388
-0.055035 0.039546 0.029378
-0.045692 0.052276 0.033821
-0.059444 0.013214 0.032428
-0.048791 0.025541 0.032402
0.004243 0.242485 -0.112211
0.016623 0.251424 -0.115307
0.002835 0.224381 -0.115165
0.016838 0.231811 -0.117700
0.004204 0.280609 -0.100884
0.020913 0.288057 -0.103033
0.002560 0.263376 -0.110714
0.018480 0.270846 -0.112330
0.006560 -0.103228 -0.021373
0.006828 -0.089214 -0.034403
0.006584 -0.122680 -0.002898
0.011057 -0.111145 -0.009360
-0.018040 -0.079458 -0.055294
-0.006755 -0.070738 -0.067660
-0.014087 -0.079437 -0.041981
-0.000753 -0.070194 -0.052276
-0.146256 0.150874 0.008427
-0.142094 0.158815 -0.009989
-0.143654 0.132827 0.016142
-0.132505 0.141503 0.000614
-0.143239 0.187092 0.002183
-0.141410 0.196802 -0.015306
-0.139089 0.170300 0.010374
-0.139570 0.174667 -0.007537
0.061136 -0.415045 -0.044639
0.067995 -0.365302 -0.018384
0.062709 -0.427853 -0.028293
0.064921 -0.387037 -0.008073
0.074917 -0.339535 -0.013505
0.088965 -0.295722 0.008936
0.071290 -0.358373 -0.025112
0.085703 -0.313373 0.004313
0.042726 0.028844 -0.101197
0.049450 0.044225 -0.100906
0.044659 0.005769 -0.106026
0.052101 0.020878 -0.104945
0.024859 0.071113 -0.097644
0.033278 0.085098 -0.097247
0.028683 0.049650 -0.098822
0.039600 0.060333 -0.097811
-0.029648 -0.294117 0.041927
-0.028530 -0.268362 0.069867
-0.030033 -0.307604 0.023560
-0.032981 -0.275857 0.052126
-0.029499 -0.235475 0.096483
-0.028683 -0.217014 0.095800
-0.038502 -0.253616 0.065799
-0.031424 -0.241217 0.076766
0.109182 -0.038135 0.023099
0.112427 -0.029357 0.011271
0.122982 -0.057208 0.033689
0.121522 -0.054322 0.012957
0.106800 -0.000649 -0.005395
0.108931 0.005515 -0.020964
0.102377 -0.026462 0.005483
0.112546 -0.020519 -0.005990
-0.080404 0.218428 -0.092398
-0.067782 0.230330 -0.101110
-0.075460 0.202122 -0.095134
-0.064902 0.213674 -0.100916
-0.083930 0.251592 -0.087739
-0.072865 0.262676 -0.090230
-0.081968 0.236285 -0.093284
-0.070162 0.246965 -0.096645
-0.040670 -0.087978 -0.057860
-0.030206 -0.078520 -0.071162
-0.029550 -0.098528 -0.036526
-0.026727 -0.087017 -0.050068
-0.044366 -0.053894 -0.093002
-0.033043 -0.043405 -0.102171
-0.040178 -0.070499 -0.080216
-0.029905 -0.062186 -0.092641
-0.044720 -0.383121 0.007797
-0.043475 -0.348898 0.037615
-0.044340 -0.405060 -0.005627
-0.044303 -0.365807 0.018262
-0.046255 -0.348389 0.008667
-0.045006 -0.298791 0.031718
-0.043966 -0.367113 -0.006377
-0.043989 -0.325026 0.021768
-0.034737 0.362657 -0.060015
-0.025819 0.374370 -0.071382
-0.029998 0.337102 -0.063646
-0.016700 0.351273 -0.072469
-0.034764 0.405088 -0.057702
-0.030282 0.416590 -0.066108
-0.032773 0.382128 -0.048372
-0.029875 0.391005 -0.061252
0.084050 -0.266317 0.052397
0.076190 -0.252247 0.067581
0.083882 -0.290570 0.017205
0.083073 -0.258089 0.042371
0.082132 -0.199136 0.093261
0.084785 -0.184613 0.089268
0.077672 -0.232468 0.101333
0.079679 -0.213558 0.098026
-0.095710 0.060173 -0.029180
-0.092981 0.072738 -0.041875
-0.099862 0.043491 -0.033853
-0.097466 0.053825 -0.046341
-0.093198 0.104281 -0.033322
-0.091818 0.116319 -0.046244
-0.093183 0.084352 -0.029798
-0.091546 0.092491 -0.043923
-0.063705 -0.097538 0.100034
-0.068178 -0.087960 0.090542
-0.059058 -0.128182 0.113011
-0.065253 -0.116750 0.102905
-0.069903 -0.046953 0.068716
-0.073377 -0.031649 0.057824
-0.067833 -0.071695 0.085615
-0.069770 -0.059432 0.076837
-0.040842 0.008780 0.038487
-0.031141 0.021908 0.039275
-0.041367 -0.015688 0.049048
-0.031865 -0.003003 0.046944
-0.035326 0.062322 0.044873
-0.024176 0.074089 0.048126
-0.038061 0.036815 0.038186
-0.027393 0.050230 0.042249
-0.021443 -0.178913 0.127393
-0.020890 -0.159923 0.120776
-0.019503 -0.212940 0.134787
-0.020176 -0.196553 0.132774
-0.019565 -0.119752 0.095517
-0.018021 -0.107395 0.083707
-0.020202 -0.147144 0.108931
-0.019664 -0.134529 0.097701
-0.076724 -0.466432 0.013573
-0.064940 -0.459996 -0.010666
-0.073586 -0.479290 0.028896
-0.062810 -0.472667 0.017520
-0.050058 -0.396484 -0.029203
-0.050479 -0.329568 -0.002474
-0.050749 -0.413735 -0.041321
-0.052246 -0.356572 -0.019787
-0.094282 -0.068691 -0.034213
-0.087977 -0.062092 -0.051221
-0.090794 -0.089200 -0.020044
-0.085483 -0.082677 -0.035834
-0.097797 -0.030567 -0.053976
-0.092936 -0.024415 -0.069252
-0.097386 -0.051391 -0.044345
-0.091381 -0.044809 -0.060733
-0.107744 0.237169 -0.075449
-0.097773 0.249356 -0.080759
-0.105484 0.220261 -0.078651
-0.094636 0.233431 -0.084761
-0.117806 0.266821 -0.058544
-0.105113 0.279100 -0.064914
-0.117566 0.249730 -0.067971
-0.105870 0.263303 -0.071563
-0.025399 -0.289223 0.070884
-0.030407 -0.260047 0.095349
-0.026908 -0.307441 0.055545
-0.028668 -0.280157 0.087277
-0.025312 -0.235474 0.122975
-0.026261 -0.221832 0.127222
-0.025016 -0.263700 0.107035
-0.030899 -0.246118 0.114876
0.019360 -0.162195 0.071187
0.023626 -0.154661 0.058285
0.019707 -0.186239 0.079252
0.021680 -0.176653 0.068446
-0.004288 -0.096162 0.024358
0.003606 -0.082779 0.017197
-0.005886 -0.113443 0.031323
0.007770 -0.105122 0.021405
0.043885 -0.468752 -0.022356
0.040076 -0.464092 -0.038142
0.051220 -0.472814 0.009674
0.051081 -0.466452 -0.006889
0.036015 -0.449831 -0.066300
0.036418 -0.410926 -0.043278
0.041323 -0.448385 -0.027174
0.041034 -0.428126 -0.026926
0.072699 -0.183221 0.035814
0.075131 -0.171849 0.024817
0.071047 -0.212667 0.049142
0.069848 -0.197915 0.044323
0.074472 -0.135232 -0.008078
0.078146 -0.121891 -0.015484
0.074548 -0.157956 0.016398
0.078189 -0.145595 0.007705
-0.100688 0.008324 -0.060625
-0.092252 0.018081 -0.073793
-0.099460 -0.011420 -0.059216
-0.092191 -0.003091 -0.072714
-0.093331 0.045965 -0.056404
-0.087433 0.057694 -0.066630
-0.096886 0.027885 -0.060737
-0.090167 0.039216 -0.071459
-0.134233 -0.054673 0.175487
-0.138495 -0.059620 0.149701
-0.125186 -0.069237 0.189589
-0.131154 -0.067986 0.164608
-0.114513 -0.019960 0.150504
-0.118492 -0.024861 0.129963
-0.096133 -0.034306 0.168442
-0.097517 -0.027788 0.146205
0.102894 0.201674 -0.049123
0.106834 0.211570 -0.061147
0.088126 0.187771 -0.065015
0.097384 0.198087 -0.071096
0.118473 0.203847 -0.040033
0.120066 0.219921 -0.049572
0.121268 0.170185 -0.050918
0.123808 0.191207 -0.056383
-0.052841 0.230446 0.008356
-0.037253 0.240279 0.005661
-0.053306 0.208941 0.014713
-0.039704 0.220193 0.009668
-0.047664 0.289584 -0.014977
-0.033493 0.300431 -0.024344
-0.045455 0.273633 -0.012165
-0.032412 0.285743 -0.014669
-0.043392 -0.469517 -0.002733
-0.029304 -0.463378 -0.020334
-0.037763 -0.481124 0.010170
-0.026049 -0.471203 -0.002312
-0.028041 -0.438978 -0.057977
-0.033634 -0.387630 -0.036795
-0.030426 -0.434139 -0.021505
-0.031600 -0.415368 -0.022854
-0.155184 -0.066700 0.159542
-0.160369 -0.069977 0.138432
-0.146370 -0.078242 0.182657
-0.157220 -0.083072 0.158665
-0.154616 -0.039198 0.132824
-0.146386 -0.034285 0.112033
-0.143957 -0.046539 0.152287
-0.145157 -0.052294 0.128387
0.086962 -0.193459 0.078156
0.089557 -0.181069 0.071414
0.085970 -0.227790 0.076490
0.086736 -0.210720 0.082860
0.088956 -0.154184 0.027743
0.098311 -0.143063 0.021474
0.082594 -0.174616 0.043740
0.088626 -0.163448 0.033488
-0.017310 0.022591 -0.102863
-0.007264 0.036911 -0.099715
-0.020029 -0.003075 -0.108692
-0.009858 0.009702 -0.107683
-0.021811 0.067170 -0.092004
-0.012209 0.080562 -0.093332
-0.022208 0.038898 -0.097434
-0.012340 0.051803 -0.095719
-0.105211 0.164426 -0.022892
-0.099414 0.177581 -0.031272
-0.093991 0.149624 -0.017206
-0.090984 0.160287 -0.026482
-0.117066 0.201253 -0.020932
-0.113410 0.218433 -0.026084
-0.112697 0.176585 -0.023086
-0.107090 0.193447 -0.028885
0.033430 -0.321247 0.035524
0.034809 -0.286364 0.059872
0.029651 -0.337947 0.019835
0.035952 -0.306513 0.051110
0.027449 -0.249010 0.077737
0.023088 -0.232195 0.080058
0.022013 -0.268170 0.035955
0.024787 -0.245505 0.063241
0.125966 0.120339 -0.081767
0.129021 0.137408 -0.093650
0.145969 0.088544 -0.073797
0.146394 0.107733 -0.084083
0.147809 0.138499 -0.088712
0.141385 0.159973 -0.087382
0.156050 0.119273 -0.070781
0.160650 0.135101 -0.076083
0.002447 0.049417 -0.098716
0.013477 0.062184 -0.098868
0.003151 0.025814 -0.103973
0.014325 0.039807 -0.102924
-0.002506 0.092932 -0.095377
0.005429 0.106281 -0.096266
-0.002559 0.065921 -0.094714
0.007763 0.079925 -0.094154
0.031954 -0.399839 -0.029238
0.043372 -0.359964 0.004571
0.030138 -0.417910 -0.021687
0.041060 -0.380298 0.005783
0.032356 -0.356755 -0.033429
0.037829 -0.298920 -0.010378
0.036123 -0.383402 -0.041949
0.034381 -0.318147 -0.016719
0.090327 0.188214 -0.078013
0.098004 0.200427 -0.083697
0.077458 0.172452 -0.084766
0.084106 0.182028 -0.086339
0.078263 0.226621 -0.107964
0.086489 0.239231 -0.106904
0.068263 0.207317 -0.104318
0.084555 0.214286 -0.106424
0.059633 -0.073465 -0.074687
0.063581 -0.061527 -0.083259
0.062437 -0.088397 -0.052980
0.070079 -0.077649 -0.062972
0.049649 -0.025406 -0.104222
0.054282 -0.009796 -0.104065
0.051820 -0.051896 -0.094861
0.057859 -0.034909 -0.097588
-0.066165 -0.266058 0.070225
-0.062564 -0.250144 0.075706
-0.069766 -0.285071 0.035043
-0.065094 -0.267418 0.053021
-0.067412 -0.212269 0.069106
-0.062921 -0.201459 0.058975
-0.063723 -0.234143 0.069233
-0.058558 -0.222705 0.057068
0.095163 -0.035268 0.032509
0.097927 -0.025227 0.018927
0.098330 -0.064489 0.044871
0.098499 -0.054934 0.028830
0.084680 0.008624 0.006169
0.094297 0.013979 -0.004547
0.089972 -0.011951 0.021787
0.095385 -0.004571 0.008081
-0.080344 -0.274746 0.049543
-0.073256 -0.254910 0.047096
-0.065638 -0.300114 0.021106
-0.063312 -0.268625 0.033819
-0.073256 -0.239396 0.085983
-0.071510 -0.223048 0.079776
-0.076307 -0.256189 0.064670
-0.074589 -0.239895 0.062339
0.072169 -0.336419 0.020199
0.076790 -0.302947 0.045577
0.067737 -0.353079 0.003075
0.070587 -0.315792 0.033841
0.087672 -0.295021 0.033049
0.083229 -0.267647 0.065116
0.080748 -0.309390 0.020178
0.081400 -0.276109 0.037754
0.050432 0.307320 -0.095732
0.072422 0.306613 -0.091408
0.039237 0.294753 -0.108618
0.059309 0.298611 -0.102932
0.083056 0.311955 -0.077353
0.098756 0.306825 -0.071137
0.101675 0.291673 -0.086862
0.112826 0.294147 -0.075403
-0.045678 0.402459 0.001313
-0.045530 0.415623 -0.008601
-0.040046 0.373311 0.012446
-0.040789 0.389388 0.008340
-0.040633 0.450287 -0.008890
-0.035412 0.461960 -0.021792
-0.049033 0.434531 -0.019547
-0.043583 0.448776 -0.027418
0.113892 0.140845 -0.070026
0.120963 0.155308 -0.081269
0.125526 0.121289 -0.057706
0.131811 0.134410 -0.073021
0.147076 0.168714 -0.072661
0.150149 0.190898 -0.061406
0.153972 0.145804 -0.060573
0.157422 0.160481 -0.064101
-0.107198 0.297262 -0.044450
-0.095447 0.306131 -0.048893
-0.113982 0.282644 -0.051579
-0.098778 0.294165 -0.059565
-0.075345 0.316376 -0.032235
-0.058903 0.323722 -0.041285
-0.082674 0.312583 -0.044150
-0.064679 0.315642 -0.048510
-0.006335 0.148799 -0.101782
0.002809 0.161585 -0.102868
-0.002382 0.124940 -0.098020
0.005982 0.138683 -0.099719
-0.004072 0.200136 -0.111011
0.009555 0.210587 -0.115314
-0.001810 0.180064 -0.107957
0.009740 0.191763 -0.111257
0.032167 0.354987 -0.011371
0.034427 0.367556 -0.023268
0.031523 0.336901 -0.024334
0.026125 0.354026 -0.029174
0.031359 0.412158 -0.016436
0.033446 0.422355 -0.032897
0.040640 0.392772 -0.017394
0.036522 0.401677 -0.030854
0.062153 -0.379477 0.008314
0.074373 -0.346255 0.036170
0.065472 -0.400110 -0.002437
0.076898 -0.363097 0.025925
0.080905 -0.350876 0.018073
0.084886 -0.314657 0.048766
0.073847 -0.364347 0.000491
0.086754 -0.329950 0.034014
0.068757 -0.409924 -0.019819
0.080821 -0.368040 0.011808
0.066507 -0.422471 -0.004368
0.076073 -0.386884 0.010781
0.073533 -0.377176 -0.009411
0.081997 -0.328539 0.008265
0.069087 -0.392849 -0.027636
0.081523 -0.341714 0.000139
-0.022512 0.208931 0.032455
-0.012509 0.220705 0.026664
-0.021803 0.189696 0.036071
-0.010372 0.201413 0.032364
-0.028065 0.249081 0.015533
-0.018472 0.261466 0.010988
-0.025888 0.227402 0.025082
-0.015990 0.238964 0.020363
-0.073921 -0.190506 0.091019
-0.080511 -0.180014 0.077940
-0.073213 -0.211482 0.093585
-0.073738 -0.200831 0.080144
-0.085729 -0.150595 0.078134
-0.086234 -0.147790 0.059879
-0.079500 -0.167262 0.081798
-0.081736 -0.162776 0.067021
-0.010306 0.275953 0.007951
0.001476 0.287061 0.005594
-0.005097 0.257216 0.012587
0.002710 0.271118 0.006259
-0.012185 0.330006 0.012431
0.000924 0.344384 0.012406
-0.003766 0.307777 0.010434
0.002194 0.324527 0.012050
0.078525 -0.195034 0.058366
0.082423 -0.186015 0.045158
0.078246 -0.223093 0.060014
0.080203 -0.209785 0.060374
0.084906 -0.138872 0.025844
0.089518 -0.128030 0.018092
0.085180 -0.158847 0.049743
0.091979 -0.148561 0.043014
-0.008590 0.413311 0.041077
0.006415 0.424340 0.037419
-0.005225 0.387929 0.042707
0.009408 0.401353 0.040955
-0.002639 0.473174 0.006446
0.006228 0.476448 -0.008417
-0.003576 0.454485 0.021408
0.011604 0.461363 0.011779
-0.042338 -0.339101 -0.016308
-0.037994 -0.286949 0.012666
-0.046538 -0.374244 -0.025127
-0.045190 -0.307598 0.001511
-0.032504 -0.208445 0.058880
-0.027699 -0.198138 0.044194
-0.030764 -0.247211 0.044114
-0.029463 -0.229890 0.055262
0.039514 -0.236832 0.101498
0.038336 -0.224713 0.101847
0.046133 -0.260776 0.075643
0.039578 -0.246251 0.089635
0.035572 -0.161138 0.077511
0.036144 -0.147119 0.065020
0.032253 -0.190285 0.094179
0.030713 -0.176141 0.083219
-0.095929 0.163169 -0.059349
-0.094966 0.174237 -0.069856
-0.091811 0.148889 -0.054541
-0.090526 0.156969 -0.069188
-0.107045 0.208862 -0.064162
-0.095519 0.220070 -0.075010
-0.101907 0.188893 -0.066337
-0.098629 0.203134 -0.073257
-0.085752 0.020446 0.017159
-0.080228 0.034808 0.012437
-0.079454 0.000385 0.033941
-0.078027 0.010331 0.025938
-0.074056 0.080268 0.014477
-0.072664 0.096777 0.014774
-0.078865 0.049301 0.012883
-0.073371 0.064047 0.010812
0.103022 0.227110 -0.062178
0.111986 0.233754 -0.064948
0.086631 0.211094 -0.071826
0.097509 0.220776 -0.077713
0.113345 0.290079 -0.063531
0.120443 0.282978 -0.055350
0.119644 0.268963 -0.065911
0.125900 0.264597 -0.053538
0.067061 -0.242668 0.112841
0.064615 -0.225297 0.121440
0.068842 -0.263316 0.085618
0.066766 -0.246116 0.096414
0.059779 -0.166863 0.109135
0.062386 -0.151509 0.102835
0.060912 -0.196210 0.119751
0.062065 -0.182376 0.110878
0.023255 0.216418 0.020013
0.032000 0.228252 0.014313
0.026458 0.197127 0.024433
0.038273 0.207551 0.018312
0.016469 0.262400 0.006810
0.023933 0.274194 0.004030
0.021469 0.242234 0.009601
0.029477 0.254114 0.004490
0.034804 -0.245767 0.047681
0.036303 -0.232758 0.058461
0.038740 -0.277154 0.017771
0.039289 -0.253998 0.036032
0.030119 -0.162810 0.028552
0.029815 -0.148693 0.017339
0.028603 -0.189206 0.044810
0.030629 -0.178464 0.036167
-0.070809 -0.297578 0.071592
-0.076496 -0.275331 0.076432
-0.076634 -0.316275 0.056466
-0.081280 -0.284229 0.064668
-0.066712 -0.255770 0.108397
-0.065965 -0.243253 0.115988
-0.071136 -0.277604 0.090297
-0.073969 -0.258882 0.092800
-0.139924 -0.023175 0.143706
-0.144578 -0.025334 0.120554
-0.116357 -0.041398 0.163478
-0.124622 -0.035877 0.141833
-0.142274 -0.004774 0.123638
-0.144181 -0.007253 0.099655
-0.116753 -0.003542 0.135645
-0.118847 -0.011027 0.110320
-0.072982 -0.089574 -0.042068
-0.066848 -0.080739 -0.056616
-0.065425 -0.107650 -0.027014
-0.060256 -0.098013 -0.039475
-0.083033 -0.052531 -0.070750
-0.075465 -0.043283 -0.084040
-0.080619 -0.071895 -0.056810
-0.072591 -0.064044 -0.071035
0.087855 0.232226 -0.004886
0.097831 0.239179 -0.019028
0.087734 0.214339 -0.009755
0.089950 0.225038 -0.024125
0.085439 0.272576 -0.017513
0.094186 0.280367 -0.025462
0.093157 0.255015 -0.012695
0.099056 0.263015 -0.024974
-0.034475 0.438711 -0.073527
-0.022468 0.450272 -0.079950
-0.031065 0.419707 -0.077268
-0.023379 0.432608 -0.085968
-0.021112 0.471546 -0.049683
-0.004783 0.480401 -0.049005
-0.027436 0.459450 -0.066893
-0.015975 0.468329 -0.070422
0.094323 -0.035236 -0.053639
0.093841 -0.020779 -0.056713
0.094973 -0.057528 -0.036701
0.097361 -0.044460 -0.043283
0.084481 -0.000675 -0.079545
0.090272 0.014073 -0.073807
0.087757 -0.016679 -0.069017
0.089589 -0.001106 -0.065668
-0.141681 0.245818 -0.004020
-0.136385 0.258121 -0.012456
-0.133699 0.223711 0.014317
-0.126852 0.239693 0.009060
-0.111282 0.303574 -0.013307
-0.093681 0.311516 -0.026511
-0.115106 0.297445 0.002624
-0.097280 0.303128 -0.006586
0.163956 0.052270 -0.021313
0.163376 0.060079 -0.039507
0.180250 0.025709 0.000987
0.177025 0.032429 -0.023531
0.171675 0.081911 -0.024588
0.180040 0.094177 -0.042679
0.183614 0.059410 -0.012990
0.187412 0.067044 -0.034426
0.114683 0.183962 -0.071338
0.115714 0.200480 -0.075463
0.118025 0.154977 -0.060422
0.122886 0.170243 -0.072926
0.134003 0.185109 -0.042486
0.134331 0.204374 -0.049584
0.137942 0.152149 -0.047279
0.143856 0.172947 -0.051607
0.066003 -0.044261 -0.090447
0.070145 -0.027859 -0.090252
0.074066 -0.062539 -0.074637
0.075211 -0.044384 -0.079764
0.059444 0.007984 -0.098639
0.070642 0.021096 -0.093809
0.064676 -0.014388 -0.097254
0.072975 0.000398 -0.093719
0.085030 -0.239298 0.064519
0.093085 -0.222899 0.066577
0.089479 -0.253825 0.030304
0.087195 -0.239567 0.049237
0.090584 -0.177639 0.060750
0.096110 -0.169478 0.048755
0.090041 -0.207251 0.071633
0.090389 -0.195470 0.059197
0.054768 -0.217651 0.042728
0.055529 -0.205623 0.035859
0.058867 -0.249345 0.028986
0.058468 -0.233009 0.037422
0.046830 -0.164039 0.003932
0.046972 -0.148920 -0.010297
0.044603 -0.191398 0.028200
0.043882 -0.180179 0.015629
0.082932 -0.241492 0.079348
0.084175 -0.225885 0.090755
0.093696 -0.268499 0.041945
0.090594 -0.250908 0.062982
0.104354 -0.056927 0.052726
0.106865 -0.049263 0.037117
0.152185 -0.046129 0.070835
0.158105 -0.047496 0.039148
-0.093738 -0.119487 0.055459
-0.093861 -0.115530 0.038709
-0.090116 -0.135343 0.067035
-0.089220 -0.132007 0.049378
-0.100866 -0.082047 0.036820
-0.101292 -0.080538 0.020019
-0.096458 -0.100695 0.047980
-0.097690 -0.097423 0.030946
-0.060334 0.130191 -0.088020
-0.054061 0.144706 -0.093871
-0.054353 0.107278 -0.087095
-0.048244 0.121516 -0.092374
-0.068209 0.179201 -0.091786
-0.061666 0.191415 -0.098064
-0.065586 0.160298 -0.090888
-0.054168 0.170374 -0.097987
0.023261 0.332285 -0.048677
0.030453 0.347998 -0.051426
0.026813 0.309910 -0.060550
0.031429 0.323672 -0.059078
0.022519 0.379801 -0.063150
0.020873 0.390445 -0.075638
0.022412 0.354202 -0.063522
0.020360 0.368049 -0.072942
0.079981 0.091082 -0.011472
0.080042 0.103846 -0.019444
0.083083 0.074421 -0.019008
0.083904 0.085529 -0.027172
0.085952 0.142844 -0.031794
0.094745 0.152543 -0.041147
0.085960 0.126357 -0.036673
0.089069 0.137687 -0.046034
-0.050405 0.206365 0.030236
-0.035279 0.215776 0.026653
-0.039159 0.187310 0.032777
-0.034870 0.199873 0.031001
-0.052087 0.272781 0.007061
-0.040199 0.281627 0.001197
-0.051427 0.258992 0.013330
-0.034694 0.263912 0.007316
-0.002241 -0.085340 0.046446
0.007785 -0.071742 0.041027
0.004031 -0.105806 0.052139
0.015855 -0.092971 0.043656
-0.005979 -0.045232 0.052522
0.005458 -0.032609 0.052614
-0.007766 -0.066706 0.046942
0.005237 -0.054990 0.046165
0.033078 -0.363492 -0.002329
0.042525 -0.333902 0.026630
0.035910 -0.385605 -0.011592
0.042883 -0.350194 0.017188
0.032511 -0.335378 -0.013993
0.039565 -0.284737 0.001707
0.033574 -0.361374 -0.019009
0.038162 -0.311486 0.000463
-0.030412 0.114481 0.043207
-0.021158 0.125697 0.046525
-0.032158 0.087947 0.044807
-0.022717 0.100799 0.048313
-0.033358 0.163878 0.037403
-0.026366 0.175787 0.037189
-0.028793 0.141324 0.040425
-0.021185 0.156655 0.039771
-0.107010 -0.022863 -0.031343
-0.104481 -0.015438 -0.044894
-0.107735 -0.040246 -0.020103
-0.104163 -0.037325 -0.037567
-0.104731 0.026078 -0.030760
-0.102388 0.034726 -0.045722
-0.105401 0.004069 -0.038883
-0.104213 0.015100 -0.047146
-0.158678 0.051271 0.055374
-0.148980 0.059574 0.036792
-0.126826 0.045374 0.065762
-0.131375 0.048704 0.047205
-0.159201 0.078436 0.044216
-0.151428 0.081328 0.023286
-0.126411 0.068646 0.050541
-0.129873 0.072522 0.030663
0.100034 -0.094339 0.039880
0.102001 -0.082495 0.028232
0.094096 -0.124728 0.052235
0.096968 -0.110102 0.041404
0.104206 -0.043761 0.003777
0.106126 -0.034229 -0.006088
0.105290 -0.070464 0.020555
0.106020 -0.057901 0.012038
0.044666 -0.093072 -0.057861
0.050332 -0.083891 -0.067048
0.050271 -0.109340 -0.037208
0.055551 -0.099476 -0.048535
0.034330 -0.059670 -0.095656
0.042709 -0.045953 -0.101336
0.039356 -0.075614 -0.079767
0.048008 -0.064975 -0.086291
0.087159 0.110361 -0.042512
0.085758 0.124713 -0.051432
0.079617 0.094618 -0.045659
0.082212 0.109001 -0.054153
0.089167 0.165268 -0.047408
0.096984 0.176902 -0.057689
0.086248 0.149369 -0.051460
0.094823 0.160668 -0.058499
0.036028 0.319441 -0.033107
0.037489 0.333708 -0.041674
0.038238 0.300481 -0.030483
0.044036 0.307491 -0.046793
0.036526 0.372979 -0.037632
0.029671 0.384536 -0.053224
0.036508 0.351404 -0.036357
0.034970 0.365834 -0.049068
-0.029400 0.297476 0.000011
-0.016932 0.310946 0.000023
-0.026350 0.278060 0.000243
-0.014848 0.291521 0.001963
-0.035441 0.356160 -0.008635
-0.028203 0.369152 -0.013035
-0.029756 0.331933 -0.001838
-0.023792 0.345782 -0.008388
0.045804 -0.431389 0.002249
0.056076 -0.396139 0.011466
0.054658 -0.434819 0.018353
0.053729 -0.418976 0.011626
0.037109 -0.425135 -0.041947
0.042701 -0.375263 -0.013679
0.029399 -0.438044 -0.032032
0.037092 -0.396928 -0.006049
-0.027443 0.390053 0.030064
-0.017002 0.402647 0.034217
-0.024586 0.362483 0.031235
-0.015071 0.377442 0.034061
-0.031278 0.448960 0.009754
-0.016466 0.460626 0.011164
