ply
format ascii 1.0
element vertex 1682
property float x
property float y
property float z
end_header
0.087248 0.047267 -0.030608
0.082201 0.021727 -0.011414
0.092475 0.028711 -0.021409
0.107461 0.257765 -0.094719
0.113266 0.270346 -0.092025
0.112471 0.230022 -0.096378
0.118622 0.245509 -0.091683
0.127392 0.205601 -0.087337
0.134242 0.221919 -0.078026
0.131788 0.173399 -0.092636
0.133058 0.190687 -0.090806
0.032265 -0.322803 0.006860
0.037241 -0.287755 0.037645
0.033358 -0.345241 -0.003702
0.034941 -0.306272 0.023830
0.027742 -0.267157 0.012912
0.035919 -0.246075 0.024079
0.029946 -0.300417 -0.007226
0.040195 -0.262793 0.013924
-0.024405 -0.333207 -0.002792
-0.021359 -0.277471 0.020521
-0.022156 -0.358687 -0.011889
-0.021491 -0.298879 0.009871
-0.013555 -0.246214 0.052186
-0.005622 -0.231968 0.062635
-0.004429 -0.284709 0.025502
0.000362 -0.256866 0.044191
0.075853 0.034144 -0.081563
0.079972 0.049532 -0.080378
0.078330 0.016762 -0.081170
0.087103 0.030134 -0.073196
0.061421 0.079355 -0.082801
0.070043 0.090389 -0.077026
0.068839 0.058769 -0.079833
0.073606 0.072294 -0.075588
-0.049338 0.088314 0.034387
-0.040824 0.101797 0.039053
-0.053528 0.063858 0.034955
-0.042986 0.075157 0.039129
-0.055103 0.139552 0.027413
-0.044344 0.148861 0.034613
-0.049066 0.114540 0.033075
-0.042259 0.128305 0.037364
-0.018340 -0.161042 0.039948
-0.016307 -0.150454 0.026235
-0.017633 -0.188538 0.057225
-0.016739 -0.176333 0.045431
-0.013387 -0.090124 -0.010999
-0.007867 -0.078758 -0.022291
-0.011255 -0.117831 0.006969
-0.013007 -0.105665 -0.001565
0.007798 0.336920 -0.068034
0.015981 0.350497 -0.066360
0.009880 0.320270 -0.071347
0.023010 0.330422 -0.071524
0.005862 0.388927 -0.066237
0.012358 0.403076 -0.074693
0.001864 0.360295 -0.066117
0.013413 0.372159 -0.067039
0.087854 0.297457 -0.032585
0.104287 0.297398 -0.038086
0.106525 0.272139 -0.031172
0.114518 0.279331 -0.041921
0.071142 0.314451 -0.047855
0.087973 0.313796 -0.058130
0.089256 0.309515 -0.044580
0.108343 0.302125 -0.052468
-0.008794 -0.181563 0.074057
-0.010187 -0.171851 0.058287
-0.011514 -0.210016 0.081946
-0.011674 -0.197912 0.070213
-0.011178 -0.135774 0.037630
-0.009587 -0.125150 0.025409
-0.007562 -0.154560 0.056257
-0.006376 -0.147339 0.042236
-0.048513 -0.166683 0.030629
-0.042896 -0.160276 0.015184
-0.049405 -0.181024 0.045558
-0.040380 -0.176403 0.028696
-0.057686 -0.127798 -0.006775
-0.053247 -0.119312 -0.017961
-0.052994 -0.148490 0.009185
-0.046562 -0.139585 -0.003496
0.090465 -0.313788 0.030974
0.087989 -0.284520 0.062308
0.085086 -0.326635 0.026264
0.088366 -0.295367 0.051611
0.082887 -0.261251 0.079236
0.082811 -0.248390 0.088596
0.098169 -0.286865 0.044037
0.088431 -0.272165 0.071049
0.077884 -0.184270 0.102711
0.079906 -0.169791 0.098132
0.077585 -0.220729 0.111971
0.077684 -0.203639 0.110616
0.079032 -0.121546 0.082378
0.080487 -0.105261 0.072815
0.077230 -0.152431 0.097914
0.076680 -0.138306 0.088603
0.140000 0.063604 -0.055780
0.147424 0.074309 -0.070045
0.153086 0.038446 -0.031016
0.158826 0.046605 -0.049036
0.160151 0.092369 -0.064137
0.164228 0.107323 -0.069699
0.166322 0.065449 -0.046167
0.171592 0.077851 -0.059961
-0.062028 -0.361777 0.018243
-0.076047 -0.312105 0.029733
-0.064202 -0.379728 -0.006057
-0.071894 -0.331262 0.026985
-0.063414 -0.311947 0.027562
-0.068530 -0.283882 0.056638
-0.059951 -0.330488 0.015542
-0.066155 -0.285948 0.032285
-0.100520 0.192463 -0.001161
-0.099282 0.206357 -0.008333
-0.099867 0.170649 -0.005718
-0.097348 0.184212 -0.012916
-0.114686 0.232097 -0.000849
-0.105808 0.242200 -0.000636
-0.107736 0.215216 -0.006561
-0.101256 0.227603 -0.011355
-0.098798 0.205209 0.012117
-0.091009 0.218175 0.012387
-0.092214 0.187355 0.008661
-0.084437 0.202480 0.007621
-0.090480 0.254347 0.012544
-0.076542 0.264053 0.007372
-0.090703 0.238052 0.021668
-0.076763 0.249093 0.017411
0.040955 0.439242 -0.014669
0.045250 0.443152 -0.031736
0.042394 0.418504 -0.001846
0.044395 0.416738 -0.019999
0.011775 0.473614 -0.033695
0.022015 0.468100 -0.042125
0.021889 0.468418 -0.009063
0.028055 0.463695 -0.026849
-0.062210 -0.073240 -0.069314
-0.053178 -0.065444 -0.081863
-0.054672 -0.090584 -0.050237
-0.048540 -0.080195 -0.066111
-0.065620 -0.033109 -0.093293
-0.055228 -0.020501 -0.100503
-0.064989 -0.052952 -0.085335
-0.054703 -0.041852 -0.095924
0.066126 0.179766 0.010604
0.075804 0.189479 -0.002423
0.065448 0.161463 0.012003
0.072535 0.171755 0.000268
0.067920 0.218772 0.009076
0.076923 0.227603 -0.000091
0.068104 0.198827 0.009878
0.074064 0.208436 -0.001020
0.039610 0.406596 -0.046125
0.036976 0.419098 -0.053772
0.042481 0.388751 -0.042366
0.034991 0.399924 -0.060106
0.028280 0.448712 -0.051149
0.028090 0.455669 -0.062219
0.034608 0.434145 -0.029229
0.037942 0.437166 -0.048397
-0.005596 0.432896 -0.090838
0.011130 0.443562 -0.086362
0.004307 0.414099 -0.076104
0.008441 0.424710 -0.086828
-0.000056 0.472592 -0.063078
0.015264 0.470604 -0.056374
0.000814 0.460521 -0.082601
0.015884 0.461923 -0.072420
0.088591 -0.149033 0.080408
0.091123 -0.138436 0.066910
0.084904 -0.169228 0.082843
0.089861 -0.161754 0.074635
0.094292 -0.092570 0.056729
0.096708 -0.079315 0.045168
0.091036 -0.121783 0.070340
0.092401 -0.108025 0.060737
-0.033271 -0.139739 0.004259
-0.025722 -0.129374 -0.004326
-0.029430 -0.160549 0.024740
-0.025733 -0.147831 0.013360
-0.045374 -0.107805 -0.029772
-0.040202 -0.098461 -0.043217
-0.034235 -0.122974 -0.012299
-0.027838 -0.111631 -0.023315
0.015604 0.119993 -0.098506
0.023764 0.134181 -0.100269
0.017268 0.092794 -0.096013
0.024787 0.107295 -0.095978
0.012745 0.172294 -0.107904
0.022919 0.185571 -0.108261
0.016250 0.149820 -0.104977
0.027515 0.161563 -0.107348
-0.003579 0.007969 0.044990
0.008882 0.017227 0.044844
-0.001760 -0.018484 0.051418
0.007193 -0.005866 0.048428
0.003644 0.053033 0.053009
0.013864 0.063927 0.049190
0.001538 0.032467 0.049004
0.013601 0.040059 0.046651
-0.021575 -0.068490 0.074534
-0.017729 -0.059522 0.059114
-0.014132 -0.093046 0.078689
-0.012595 -0.080589 0.067722
-0.024996 -0.017108 0.052588
-0.012803 -0.002998 0.049993
-0.022949 -0.042679 0.059298
-0.012489 -0.030198 0.053723
0.002134 0.369853 0.039945
0.016465 0.382197 0.040169
0.000051 0.350205 0.030518
0.012575 0.360142 0.028370
-0.002546 0.430594 0.017203
0.010780 0.439873 0.009221
0.002794 0.412491 0.028400
0.013721 0.420315 0.017475
-0.014849 -0.306352 0.039197
-0.014622 -0.272423 0.066326
-0.016316 -0.319108 0.018079
-0.013482 -0.289813 0.050166
-0.007564 -0.240320 0.086799
-0.007072 -0.224288 0.092467
-0.004864 -0.271616 0.045496
-0.006809 -0.252988 0.070323
-0.056988 0.280449 -0.085522
-0.042197 0.290426 -0.086671
-0.058091 0.264977 -0.091927
-0.042013 0.272888 -0.092716
-0.045694 0.314798 -0.067945
-0.028774 0.319136 -0.070330
-0.048282 0.301246 -0.076745
-0.028707 0.305549 -0.082354
-0.096354 0.065004 -0.011254
-0.090956 0.078924 -0.015185
-0.091641 0.045826 0.000521
-0.087488 0.056647 -0.007370
-0.090808 0.122940 -0.012922
-0.092654 0.135438 -0.020744
-0.090965 0.095499 -0.014297
-0.091113 0.108521 -0.018563
0.159459 -0.028874 0.061228
0.159339 -0.026615 0.034078
0.189468 -0.059412 0.070258
0.199157 -0.056322 0.042677
0.177437 -0.009432 0.021150
0.179844 -0.007512 -0.003077
0.205331 -0.037880 0.041181
0.212592 -0.036942 0.012276
-0.053832 -0.460488 -0.052136
-0.037382 -0.445865 -0.062686
-0.043906 -0.465095 -0.036298
-0.031713 -0.458925 -0.048632
-0.054183 -0.429970 -0.059523
-0.044441 -0.386721 -0.044195
-0.052392 -0.447623 -0.055665
-0.037279 -0.419848 -0.059110
0.088588 0.251763 -0.105364
0.099716 0.259418 -0.097601
0.096136 0.227215 -0.103298
0.103500 0.241594 -0.095707
0.110650 0.199463 -0.092738
0.117915 0.213771 -0.095579
0.113164 0.165605 -0.093085
0.115780 0.183361 -0.097267
-0.125151 0.206442 -0.036452
-0.120377 0.224356 -0.042101
-0.115358 0.196808 -0.041485
-0.114551 0.208645 -0.053286
-0.127068 0.238655 -0.047427
-0.123729 0.250456 -0.055996
-0.123240 0.218589 -0.054828
-0.116055 0.233996 -0.063130
0.051882 0.010745 0.026667
0.057917 0.023602 0.015988
0.057472 -0.011271 0.034749
0.062325 0.001294 0.024114
0.044887 0.045916 0.032878
0.054630 0.058964 0.027311
0.046612 0.028788 0.026915
0.054909 0.042958 0.017385
-0.017378 0.399557 -0.075276
-0.009065 0.415009 -0.081961
-0.012056 0.375477 -0.064666
-0.003296 0.390286 -0.068506
-0.009253 0.451831 -0.071320
0.005896 0.462835 -0.067990
-0.007218 0.431991 -0.075738
0.000244 0.444357 -0.080083
0.053262 -0.438826 -0.050893
0.054098 -0.401584 -0.036780
0.047476 -0.443902 -0.013429
0.043798 -0.415242 -0.007578
0.042975 -0.397534 -0.055543
0.046324 -0.334930 -0.028295
0.050066 -0.417845 -0.053490
0.051651 -0.361316 -0.025600
0.021826 0.024816 0.041461
0.033816 0.035176 0.036743
0.022609 0.004846 0.042190
0.034174 0.014251 0.036449
0.025196 0.067111 0.049864
0.035175 0.080184 0.045022
0.026381 0.046776 0.046705
0.038289 0.058678 0.041679
-0.066381 0.060490 0.021734
-0.060900 0.074106 0.027570
-0.069104 0.028003 0.024014
-0.067191 0.044496 0.021023
-0.065262 0.111671 0.023383
-0.060388 0.125082 0.027214
-0.064907 0.087213 0.022950
-0.058362 0.100709 0.029663
0.029516 -0.147828 -0.004626
0.037304 -0.141085 -0.016042
0.033362 -0.170659 0.016029
0.034688 -0.158860 0.003008
0.015909 -0.094137 -0.042981
0.018028 -0.082983 -0.054793
0.018195 -0.118377 -0.024573
0.020316 -0.106645 -0.040216
-0.041053 0.425251 0.007454
-0.036830 0.437430 0.000556
-0.035248 0.399908 0.018216
-0.031844 0.415677 0.014102
-0.023605 0.471634 -0.032514
-0.004743 0.478452 -0.033055
-0.022671 0.466258 -0.006429
-0.008070 0.474264 -0.009320
0.156634 0.005045 0.018053
0.160937 0.008223 -0.008622
0.175549 -0.026352 0.030164
0.171710 -0.026231 0.006450
0.178839 0.035008 -0.015605
0.176324 0.045248 -0.035853
0.185059 0.007898 0.005717
0.187669 0.012612 -0.016433
-0.068433 -0.146517 0.019333
-0.065952 -0.138149 0.004666
-0.063931 -0.170432 0.038576
-0.061283 -0.159460 0.023804
-0.080045 -0.106196 -0.008423
-0.076035 -0.097978 -0.022951
-0.076175 -0.126749 0.006224
-0.070373 -0.119830 -0.008059
0.028400 0.121938 0.041786
0.034829 0.136451 0.039083
0.028337 0.098335 0.046407
0.037608 0.109155 0.039151
0.028136 0.176417 0.030168
0.036693 0.189071 0.025520
0.029284 0.150153 0.035197
0.036138 0.165570 0.032060
0.033972 0.144362 -0.102980
0.043703 0.155893 -0.102685
0.034643 0.118010 -0.097586
0.043477 0.132218 -0.096773
0.047200 0.185599 -0.109979
0.058737 0.197437 -0.109158
0.041632 0.167116 -0.109005
0.054517 0.176041 -0.106186
-0.104972 0.206963 0.027785
-0.088130 0.222531 0.030479
-0.102795 0.184499 0.028688
-0.085269 0.204332 0.029150
-0.081845 0.293820 0.002530
-0.064536 0.297924 -0.005930
-0.084209 0.274127 0.018621
-0.069500 0.282994 0.008257
-0.162356 0.096611 0.023153
-0.151058 0.104759 0.005025
-0.124107 0.090888 0.027466
-0.123024 0.094923 0.005806
-0.160787 0.122094 0.013868
-0.151140 0.133191 -0.000874
-0.140924 0.109065 0.018840
-0.130302 0.118046 0.000712
-0.034249 -0.197148 0.136961
-0.037437 -0.185209 0.118087
-0.038643 -0.221006 0.135074
-0.045877 -0.210301 0.128925
-0.040863 -0.158098 0.123502
-0.048529 -0.146404 0.108681
-0.043865 -0.181918 0.135961
-0.048616 -0.168182 0.121805
-0.097829 0.144070 -0.031250
-0.099582 0.154857 -0.040726
-0.092167 0.122301 -0.030574
-0.091386 0.136311 -0.040089
-0.110347 0.183241 -0.040726
-0.106760 0.195525 -0.054767
-0.104588 0.167980 -0.042797
-0.102656 0.179095 -0.054550
-0.054920 -0.195914 0.140535
-0.064312 -0.186423 0.133328
-0.059294 -0.228245 0.129069
-0.063077 -0.209273 0.133180
-0.062963 -0.148415 0.118982
-0.071310 -0.138220 0.105625
-0.060549 -0.175191 0.127311
-0.064980 -0.162040 0.118866
-0.088831 0.087378 -0.054618
-0.083322 0.099525 -0.064589
-0.089776 0.065773 -0.055045
-0.082990 0.077687 -0.063219
-0.097358 0.131211 -0.049582
-0.092821 0.140878 -0.062849
-0.090776 0.107133 -0.053008
-0.088981 0.124127 -0.063383
0.081212 0.117133 -0.015131
0.085823 0.129523 -0.022708
0.085788 0.096502 -0.028616
0.087890 0.109929 -0.030352
0.083901 0.181325 -0.034347
0.089481 0.193740 -0.042291
0.086044 0.163834 -0.033294
0.094594 0.174917 -0.040453
0.105318 -0.082695 0.007249
0.105448 -0.069649 0.000393
0.100336 -0.105038 0.027280
0.102335 -0.092926 0.016634
0.106610 -0.029319 -0.018736
0.104279 -0.016464 -0.027535
0.103947 -0.057910 -0.007805
0.105151 -0.045284 -0.014719
0.003951 0.200369 0.029245
0.014041 0.211055 0.025583
0.007570 0.176550 0.032161
0.015905 0.188741 0.028649
-0.002608 0.241383 0.017504
0.008130 0.251131 0.015054
0.000901 0.221590 0.021537
0.011863 0.230816 0.015864
0.067890 0.034385 0.009451
0.070762 0.045578 0.001644
0.069631 0.013546 0.016134
0.074277 0.024601 0.004298
0.061583 0.074491 0.020236
0.065190 0.091375 0.015075
0.065433 0.055775 0.014052
0.067773 0.070887 0.007774
0.031727 0.396213 0.021009
0.040399 0.405570 0.010301
0.033612 0.364525 0.016903
0.038262 0.379459 0.009936
0.023726 0.448401 0.008210
0.031026 0.451913 -0.008496
0.027767 0.423548 0.014997
0.035327 0.433847 0.001419
-0.070862 0.181160 0.017008
-0.066001 0.195687 0.022841
-0.064370 0.155614 0.022114
-0.062252 0.170193 0.023801
-0.074918 0.233373 0.025728
-0.061976 0.246047 0.019871
-0.070266 0.211308 0.025981
-0.063430 0.225357 0.021694
0.007164 0.104557 0.050172
0.017512 0.115662 0.048668
0.005376 0.079748 0.052351
0.016439 0.089958 0.050931
0.009089 0.151131 0.037280
0.017950 0.163856 0.033447
0.009612 0.127483 0.042657
0.019520 0.139405 0.041903
0.121209 0.259643 -0.082060
0.129248 0.260246 -0.070933
0.126484 0.232038 -0.087199
0.130049 0.241913 -0.069899
0.135135 0.224039 -0.061842
0.129732 0.237937 -0.051605
0.138086 0.193355 -0.073140
0.141926 0.206727 -0.061317
-0.032422 -0.096781 0.097365
-0.029962 -0.087283 0.084891
-0.032829 -0.129219 0.108572
-0.034154 -0.113091 0.099001
-0.041207 -0.045304 0.067811
-0.035533 -0.033140 0.060279
-0.038783 -0.070885 0.085987
-0.036420 -0.061470 0.074739
-0.090892 0.278932 -0.074289
-0.075054 0.287717 -0.075979
-0.088839 0.265313 -0.082037
-0.074747 0.274403 -0.084174
-0.080059 0.307282 -0.060385
-0.060139 0.310298 -0.063640
-0.086891 0.293228 -0.066419
-0.068691 0.300879 -0.072240
0.018742 0.326329 -0.007615
0.024974 0.342720 -0.010180
0.025876 0.307658 -0.009468
0.033960 0.320322 -0.015957
0.033467 0.393097 0.000516
0.036922 0.406188 -0.011856
0.032978 0.375191 -0.007452
0.029337 0.384485 -0.020516
-0.085634 -0.010225 -0.082543
-0.074199 0.001170 -0.090086
-0.084392 -0.030377 -0.077915
-0.075193 -0.019603 -0.089577
-0.079634 0.030903 -0.081464
-0.069112 0.043188 -0.086559
-0.082810 0.013227 -0.084611
-0.070473 0.025696 -0.090466
0.069623 -0.094539 0.077239
0.070794 -0.080713 0.068958
0.064011 -0.123832 0.092858
0.065535 -0.106849 0.085402
0.064215 -0.039288 0.048611
0.070300 -0.025976 0.039610
0.069367 -0.064669 0.064001
0.072025 -0.051132 0.052969
-0.046067 0.364875 -0.028645
-0.044384 0.377324 -0.042868
-0.046234 0.349242 -0.028019
-0.037783 0.357654 -0.041263
-0.049084 0.428972 -0.055891
-0.043981 0.436833 -0.068642
-0.047838 0.407444 -0.047793
-0.042811 0.418069 -0.061804
-0.118386 0.250766 0.014043
-0.103266 0.264535 0.013757
-0.111760 0.229965 0.023608
-0.102688 0.243517 0.019550
-0.118504 0.289042 0.010817
-0.102292 0.296628 0.005607
-0.109021 0.276789 0.018459
-0.095233 0.284652 0.012730
-0.026575 0.226274 -0.106868
-0.013533 0.236398 -0.108146
-0.023368 0.206370 -0.108254
-0.011512 0.218353 -0.110248
-0.029401 0.262406 -0.100499
-0.013069 0.269894 -0.102246
-0.027324 0.245976 -0.103501
-0.010580 0.254420 -0.105055
-0.154720 0.100172 0.057809
-0.158929 0.106064 0.037587
-0.135127 0.085145 0.063872
-0.121131 0.097434 0.046379
-0.151334 0.125641 0.041894
-0.151240 0.138062 0.027035
-0.136503 0.111019 0.051164
-0.121605 0.124880 0.036473
0.025067 -0.170815 0.050880
0.025051 -0.156805 0.039569
0.024661 -0.206569 0.074712
0.023315 -0.193208 0.063594
-0.001482 -0.106986 0.007459
0.005418 -0.095804 -0.004006
0.004214 -0.116800 0.018011
0.013068 -0.110835 0.004542
-0.136528 0.267451 -0.027664
-0.128222 0.278959 -0.041765
-0.135547 0.251093 -0.041859
-0.128369 0.264971 -0.046512
-0.126864 0.298313 -0.024509
-0.108382 0.304905 -0.035345
-0.134345 0.281651 -0.024627
-0.120456 0.291153 -0.034822
-0.135642 0.238061 0.008804
-0.128902 0.250691 0.002823
-0.136358 0.205814 -0.000653
-0.127621 0.224832 -0.006767
-0.135445 0.275986 -0.011197
-0.126128 0.291332 -0.010853
-0.129561 0.264767 0.005575
-0.118810 0.276275 -0.001547
0.019725 -0.073555 0.049642
0.026232 -0.059271 0.048648
0.022885 -0.101502 0.057151
0.028501 -0.088757 0.055919
0.014837 -0.021846 0.051371
0.025072 -0.010805 0.044456
0.015284 -0.047249 0.051778
0.023865 -0.034887 0.049843
-0.116108 0.155471 0.014522
-0.108492 0.173784 0.008059
-0.109732 0.136455 0.008457
-0.105663 0.153561 -0.001073
-0.121002 0.200206 0.003773
-0.114450 0.218653 0.003570
-0.115387 0.182455 -0.003897
-0.111497 0.199144 -0.013314
0.044740 -0.469740 0.022143
0.039799 -0.458986 0.004842
0.043198 -0.464585 0.044347
0.054579 -0.453476 0.030373
0.035586 -0.435460 0.006278
0.043487 -0.405911 0.010554
0.038195 -0.447601 0.028526
0.045948 -0.430777 0.023077
0.054114 0.051677 -0.090515
0.058929 0.066300 -0.090233
0.060468 0.031912 -0.094092
0.069311 0.045758 -0.089917
0.038467 0.097931 -0.093288
0.045969 0.108580 -0.091558
0.044102 0.072134 -0.093062
0.050901 0.086316 -0.090425
0.046006 0.093027 0.035015
0.054401 0.104381 0.030193
0.045415 0.070260 0.035431
0.052930 0.082251 0.028894
0.046134 0.153868 0.026665
0.053730 0.166921 0.020824
0.045363 0.124873 0.031701
0.047542 0.141265 0.029479
-0.138968 0.156974 0.028715
-0.138507 0.168752 0.012768
-0.131877 0.142367 0.035177
-0.124617 0.159999 0.028099
-0.133020 0.209787 0.016937
-0.126273 0.225887 0.013234
-0.123383 0.179645 0.027705
-0.129773 0.193503 0.014766
-0.012648 -0.171775 0.108076
-0.018043 -0.161167 0.094351
-0.013568 -0.205187 0.114241
-0.016086 -0.188995 0.106320
-0.011049 -0.121454 0.078145
-0.008303 -0.107683 0.065016
-0.008742 -0.153390 0.089212
-0.009908 -0.139282 0.076431
0.048634 -0.192148 0.117349
0.050405 -0.177088 0.111068
0.049630 -0.222185 0.123491
0.050129 -0.206372 0.123933
0.051459 -0.132674 0.091859
0.054019 -0.116946 0.086216
0.048117 -0.155920 0.100512
0.051632 -0.142687 0.094702
0.072414 0.151208 0.003426
0.080658 0.162185 -0.005332
0.070878 0.131539 0.003554
0.074797 0.142518 -0.006759
0.080524 0.198247 -0.014280
0.083018 0.207831 -0.027841
0.079033 0.180610 -0.012914
0.084746 0.191746 -0.027671
-0.069831 -0.215582 0.118150
-0.075120 -0.201911 0.106832
-0.071113 -0.236290 0.111194
-0.074066 -0.224777 0.102567
-0.074314 -0.170364 0.110183
-0.081305 -0.161309 0.097810
-0.073577 -0.190116 0.118143
-0.078952 -0.181398 0.102961
0.025531 0.200764 -0.116925
0.041417 0.209264 -0.116316
0.031225 0.175620 -0.112897
0.039085 0.194663 -0.115686
0.058946 0.224289 -0.115146
0.071325 0.232253 -0.109902
0.056555 0.208109 -0.114496
0.070026 0.216627 -0.112913
0.037792 -0.097279 0.068324
0.045193 -0.084281 0.065821
0.039425 -0.125373 0.081993
0.043846 -0.109839 0.076327
0.035644 -0.046182 0.053373
0.039420 -0.031392 0.047453
0.035092 -0.073494 0.059329
0.040756 -0.059846 0.054601
0.053234 0.121719 -0.091854
0.056946 0.134309 -0.087506
0.057743 0.097950 -0.085477
0.068955 0.108127 -0.083944
0.055914 0.162159 -0.100338
0.072294 0.171915 -0.092296
0.053823 0.144877 -0.096209
0.066025 0.156474 -0.092068
-0.095051 -0.052007 0.048508
-0.100551 -0.047460 0.030852
-0.093598 -0.067428 0.055767
-0.097708 -0.063742 0.040307
-0.096334 -0.004018 0.023950
-0.098199 0.005834 0.012662
-0.094138 -0.033560 0.042868
-0.098056 -0.021629 0.030313
0.076837 0.161182 -0.017585
0.083780 0.172596 -0.023234
0.082078 0.141219 -0.016230
0.087945 0.151726 -0.023265
0.098313 0.213826 -0.022504
0.102264 0.223520 -0.033229
0.096232 0.200311 -0.028412
0.100404 0.209345 -0.039154
0.082179 -0.300510 -0.003234
0.089879 -0.266607 0.024531
0.079125 -0.321903 -0.006870
0.084375 -0.276924 0.017698
0.073965 -0.240132 0.039213
0.076352 -0.228492 0.044964
0.077765 -0.274482 0.006339
0.076796 -0.252365 0.026176
-0.064129 0.012175 -0.094530
-0.053105 0.024803 -0.097148
-0.064555 -0.009642 -0.096956
-0.053692 0.003280 -0.100022
-0.054417 0.064537 -0.085395
-0.048212 0.080240 -0.084342
-0.056725 0.039318 -0.089749
-0.048170 0.052130 -0.090013
0.089067 0.137130 -0.058846
0.087035 0.150774 -0.066988
0.085465 0.121773 -0.062006
0.081914 0.133712 -0.068709
0.100347 0.187340 -0.051326
0.105775 0.192225 -0.064522
0.089577 0.170151 -0.064958
0.099182 0.179486 -0.070796
-0.075729 -0.163091 0.056001
-0.074880 -0.158302 0.040894
-0.069150 -0.190544 0.070108
-0.067630 -0.179673 0.055253
-0.087968 -0.129221 0.034826
-0.084152 -0.124201 0.019350
-0.082276 -0.146115 0.044224
-0.078987 -0.141217 0.029326
0.038847 -0.180696 0.101933
0.040055 -0.166295 0.094502
0.039835 -0.208988 0.111296
0.038325 -0.196089 0.104114
0.030382 -0.125719 0.067850
0.034506 -0.110982 0.062748
0.034738 -0.152431 0.088520
0.035552 -0.138589 0.079390
-0.043422 -0.007865 -0.104413
-0.030670 0.005738 -0.106109
-0.044206 -0.028921 -0.102048
-0.030861 -0.015878 -0.105830
-0.040542 0.037403 -0.094472
-0.030339 0.052516 -0.093244
-0.042704 0.015044 -0.100833
-0.031606 0.026429 -0.100669
0.128485 0.095105 -0.043465
0.125232 0.103634 -0.064679
0.138417 0.072398 -0.028847
0.138134 0.078843 -0.048890
0.144478 0.122448 -0.043321
0.147218 0.139632 -0.051486
0.149450 0.101278 -0.038307
0.161672 0.115170 -0.053653
0.057433 0.135656 0.021824
0.065021 0.145789 0.014129
0.056269 0.110336 0.022089
0.061624 0.122921 0.015733
0.048304 0.196490 0.022093
0.056813 0.208596 0.015069
0.047037 0.177479 0.025431
0.057112 0.186199 0.016030
-0.053575 -0.467297 0.049771
-0.040829 -0.453944 0.038459
-0.050710 -0.468488 0.070103
-0.037776 -0.458130 0.054680
-0.045704 -0.430371 0.035562
-0.051653 -0.399151 0.035785
-0.051291 -0.442990 0.027195
-0.049660 -0.422042 0.020319
-0.077061 0.068547 -0.072471
-0.064944 0.080456 -0.078084
-0.078319 0.049503 -0.076419
-0.067035 0.061134 -0.081596
-0.075240 0.109319 -0.074774
-0.068254 0.119485 -0.081141
-0.073568 0.089739 -0.073816
-0.065850 0.099984 -0.080708
-0.017331 0.292401 -0.091017
-0.000583 0.299106 -0.089639
-0.021573 0.276548 -0.094090
-0.006478 0.283112 -0.100340
-0.010840 0.326302 -0.075663
0.001848 0.338767 -0.081233
-0.011171 0.309996 -0.084448
0.001275 0.317896 -0.084359
-0.083017 0.141612 -0.070969
-0.077843 0.153783 -0.080539
-0.079555 0.119733 -0.065048
-0.075671 0.133075 -0.077841
-0.091661 0.186664 -0.077498
-0.085025 0.197284 -0.085118
-0.085058 0.166543 -0.077150
-0.079494 0.176441 -0.084631
0.078056 -0.082810 -0.045715
0.080073 -0.072507 -0.056595
0.078882 -0.110908 -0.022608
0.081732 -0.098257 -0.032029
0.080916 -0.029962 -0.079746
0.080662 -0.013298 -0.081380
0.083137 -0.051513 -0.067139
0.085467 -0.035422 -0.067170
-0.137274 0.196600 -0.024201
-0.135636 0.211561 -0.033604
-0.132430 0.171696 -0.026568
-0.129573 0.182645 -0.036671
-0.142263 0.239157 -0.027273
-0.142005 0.253036 -0.034647
-0.141867 0.221946 -0.034488
-0.137064 0.232029 -0.046514
-0.060586 -0.388624 0.012062
-0.066286 -0.350325 0.042573
-0.059857 -0.403361 0.005332
-0.067566 -0.367962 0.031632
-0.061435 -0.346739 0.029119
-0.066444 -0.324835 0.053333
-0.059150 -0.371968 0.007360
-0.068336 -0.325827 0.039321
-0.085725 0.103162 0.001496
-0.084505 0.116976 -0.001638
-0.086192 0.073207 0.002457
-0.083468 0.089653 0.000183
-0.090421 0.152067 0.001222
-0.085759 0.166114 -0.001380
-0.084702 0.132175 -0.002078
-0.085750 0.144942 -0.006055
-0.058020 -0.254379 0.031625
-0.050957 -0.236521 0.042117
-0.052101 -0.289361 0.011714
-0.045940 -0.260620 0.033555
-0.052986 -0.199930 0.048669
-0.042080 -0.194296 0.035682
-0.051874 -0.222109 0.050019
-0.041486 -0.212679 0.041023
-0.022992 0.122740 -0.094656
-0.014669 0.137718 -0.095205
-0.021018 0.097710 -0.092281
-0.011952 0.110917 -0.092181
-0.028823 0.177480 -0.102228
-0.017727 0.188985 -0.105361
-0.023676 0.155874 -0.097942
-0.013420 0.168644 -0.099706
-0.018084 -0.060170 -0.085535
-0.004146 -0.055090 -0.097116
-0.016504 -0.070910 -0.072431
-0.001897 -0.064918 -0.082018
-0.020665 -0.027615 -0.106024
-0.009484 -0.015026 -0.107629
-0.019187 -0.044619 -0.096763
-0.007503 -0.036028 -0.104785
0.076485 0.065375 -0.059918
0.083009 0.077905 -0.059065
0.081917 0.043759 -0.066169
0.081980 0.059608 -0.068063
0.071934 0.102632 -0.070972
0.076857 0.114219 -0.067607
0.072437 0.084110 -0.066861
0.080456 0.094811 -0.061636
-0.104234 -0.017066 0.013566
-0.105395 -0.006229 0.000239
-0.104695 -0.035679 0.020552
-0.106790 -0.029739 0.003716
-0.098463 0.033534 -0.004133
-0.100340 0.044323 -0.018036
-0.103026 0.014205 0.001833
-0.105245 0.022926 -0.013182
0.026757 -0.018110 -0.111798
0.037809 -0.006083 -0.110756
0.028628 -0.038653 -0.107364
0.037830 -0.025823 -0.110992
0.021771 0.025291 -0.106353
0.033404 0.037772 -0.107415
0.021245 0.002477 -0.114237
0.032279 0.015299 -0.109916
-0.042493 -0.454025 -0.014311
-0.040593 -0.443501 -0.032799
-0.049049 -0.459263 0.017731
-0.040018 -0.445743 0.006358
-0.032350 -0.380925 -0.019828
-0.026648 -0.316211 0.004195
-0.028146 -0.399452 -0.034813
-0.029518 -0.347095 -0.002412
-0.044493 0.095404 -0.088012
-0.033711 0.109411 -0.091377
-0.039496 0.068491 -0.090123
-0.031075 0.083049 -0.088714
-0.046355 0.153670 -0.095903
-0.037807 0.165400 -0.097688
-0.039659 0.130519 -0.093444
-0.031256 0.143316 -0.095856
-0.021368 0.034357 0.044720
-0.008874 0.043869 0.048109
-0.022096 0.007637 0.042239
-0.011965 0.022834 0.044814
-0.015795 0.082328 0.051903
-0.003986 0.092844 0.053804
-0.018448 0.058430 0.051086
-0.005881 0.068499 0.054192
0.085064 -0.062471 0.056754
0.088923 -0.051527 0.044302
0.084213 -0.087819 0.070260
0.085690 -0.076122 0.059004
0.074208 -0.010850 0.030617
0.079384 -0.001563 0.018641
0.080396 -0.038476 0.044690
0.084241 -0.026691 0.032718
0.074196 0.159815 -0.077300
0.087886 0.170264 -0.078625
0.078863 0.142216 -0.076549
0.085644 0.156769 -0.077615
0.086558 0.212896 -0.091689
0.101767 0.217728 -0.092673
0.083609 0.193389 -0.092828
0.094353 0.201120 -0.095227
-0.080614 -0.082868 0.079878
-0.084517 -0.071517 0.069865
-0.077717 -0.108947 0.097206
-0.083202 -0.099462 0.085670
-0.079908 -0.025417 0.050882
-0.084416 -0.012894 0.040901
-0.082844 -0.055458 0.064494
-0.084273 -0.041416 0.055608
0.097533 -0.117235 0.016303
0.096849 -0.104097 0.003803
0.094586 -0.136610 0.043555
0.098706 -0.125231 0.032983
0.098675 -0.070240 -0.018955
0.099826 -0.056131 -0.025189
0.099741 -0.092390 -0.005419
0.100785 -0.081253 -0.014292
0.034739 0.236818 -0.119787
0.048792 0.248653 -0.119989
0.030973 0.220570 -0.118871
0.046811 0.228495 -0.119341
0.062448 0.260417 -0.115220
0.081621 0.266290 -0.111303
0.064319 0.241126 -0.117035
0.077495 0.247906 -0.113383
-0.096382 -0.095518 0.013674
-0.093372 -0.091144 -0.003565
-0.093074 -0.111578 0.024842
-0.088468 -0.109744 0.007002
-0.103664 -0.059080 -0.008900
-0.100764 -0.055520 -0.025693
-0.100023 -0.078989 0.001117
-0.098110 -0.072385 -0.015177
0.053931 -0.292673 -0.009162
0.060665 -0.254506 0.017162
0.052368 -0.313267 -0.015400
0.056883 -0.269282 0.001879
0.036539 -0.204911 0.037195
0.035390 -0.194229 0.026615
0.040109 -0.232873 0.042251
0.042275 -0.221833 0.035190
0.012703 -0.122302 0.054713
0.018836 -0.110209 0.044161
0.018249 -0.141175 0.063105
0.023570 -0.132332 0.052437
-0.004260 -0.081732 0.030502
0.002120 -0.068060 0.023158
0.001646 -0.096945 0.033922
0.012942 -0.085612 0.027720
0.064782 -0.311568 0.057151
0.058826 -0.283615 0.081815
0.065225 -0.328881 0.043221
0.058004 -0.297821 0.065582
0.054755 -0.248072 0.110054
0.054114 -0.233105 0.119532
0.063336 -0.272692 0.082672
0.055498 -0.260202 0.095436
0.052702 -0.067939 0.062936
0.055683 -0.053605 0.053988
0.053396 -0.095239 0.076454
0.056515 -0.080697 0.069927
0.039507 -0.016069 0.042205
0.045143 -0.003135 0.034479
0.050977 -0.040299 0.051107
0.053793 -0.025159 0.041221
-0.042732 -0.321158 0.061860
-0.053494 -0.295378 0.088173
-0.046747 -0.336817 0.054456
-0.058039 -0.313812 0.073327
-0.037176 -0.276555 0.101232
-0.047426 -0.260306 0.117383
-0.040706 -0.300928 0.077516
-0.055634 -0.276073 0.100207
0.099651 -0.014371 -0.045630
0.094912 -0.000960 -0.052803
0.101412 -0.040083 -0.027582
0.100753 -0.027534 -0.036456
0.093565 0.015995 -0.059853
0.091131 0.029703 -0.061363
0.098490 -0.001903 -0.034467
0.097511 0.012417 -0.042738
-0.028640 -0.365250 0.010906
-0.024638 -0.339208 0.044921
-0.029084 -0.381638 -0.001171
-0.024948 -0.353178 0.033001
-0.019908 -0.333959 0.030553
-0.017445 -0.306318 0.066897
-0.023690 -0.350581 0.013986
-0.022708 -0.322286 0.052436
-0.082384 -0.126902 0.096367
-0.088631 -0.124399 0.077460
-0.079256 -0.148487 0.105769
-0.086756 -0.140602 0.088371
-0.090721 -0.089400 0.069032
-0.095310 -0.084505 0.054692
-0.089282 -0.110324 0.080432
-0.093449 -0.104706 0.065285
0.082966 0.042693 -0.043924
0.083946 0.053836 -0.052843
0.090673 0.026325 -0.038328
0.095560 0.036286 -0.044139
0.081423 0.074534 -0.035372
0.085869 0.085317 -0.044096
0.079757 0.059516 -0.034803
0.082537 0.069112 -0.047118
-0.041702 0.335778 -0.017546
-0.035556 0.346786 -0.023802
-0.033573 0.321293 -0.010161
-0.032072 0.333284 -0.016989
-0.039005 0.389915 -0.008557
-0.039631 0.404978 -0.019385
-0.041578 0.376521 -0.017920
-0.032505 0.387093 -0.031659
0.067579 0.135690 -0.087548
0.068929 0.150143 -0.084512
0.060633 0.114328 -0.080544
0.072971 0.125409 -0.078627
0.065115 0.187778 -0.103719
0.078677 0.198306 -0.102971
0.064983 0.174893 -0.100329
0.077197 0.182947 -0.096736
0.044474 -0.284797 0.048597
0.035344 -0.260460 0.077603
0.040215 -0.304788 0.038194
0.040237 -0.274731 0.062205
0.032026 -0.209309 0.096453
0.031687 -0.198862 0.084944
0.035402 -0.229764 0.088640
0.030083 -0.217965 0.078737
0.005188 -0.136979 0.023811
0.004723 -0.127781 0.010398
0.004106 -0.162433 0.036731
0.008881 -0.147950 0.025148
-0.013410 -0.093544 -0.030169
-0.002386 -0.080082 -0.038653
-0.003443 -0.110511 -0.010583
-0.001118 -0.092977 -0.019399
0.008879 -0.130319 0.038702
0.014260 -0.122197 0.026301
0.010890 -0.152556 0.051244
0.015309 -0.142304 0.039024
-0.008939 -0.078853 0.002517
-0.003837 -0.069354 -0.008551
0.000537 -0.094150 0.008822
0.005911 -0.081164 -0.001978
0.087089 0.225912 -0.038768
0.101595 0.234412 -0.048445
0.083622 0.207609 -0.044721
0.091315 0.219069 -0.054376
0.108565 0.248630 -0.031385
0.118467 0.258975 -0.040964
0.114747 0.229322 -0.033683
0.118462 0.239074 -0.044901
-0.066200 -0.013792 0.047448
-0.057190 -0.001366 0.043379
-0.059258 -0.034797 0.067274
-0.057505 -0.021948 0.057208
-0.057023 0.038448 0.028886
-0.048796 0.050883 0.034720
-0.061578 0.011432 0.032398
-0.051178 0.023464 0.033322
0.003181 0.242055 -0.113417
0.017163 0.253407 -0.117159
0.003849 0.224729 -0.114316
0.016721 0.234133 -0.115932
0.004711 0.283437 -0.099560
0.018837 0.288597 -0.104970
0.002449 0.263968 -0.109209
0.018361 0.272293 -0.115311
0.008124 -0.103627 -0.020890
0.007946 -0.088113 -0.031532
0.010596 -0.124079 -0.001178
0.013878 -0.111936 -0.010893
-0.018370 -0.076078 -0.056597
-0.006128 -0.068458 -0.067756
-0.015295 -0.077086 -0.042138
-0.000170 -0.070287 -0.053511
-0.145023 0.152619 -0.003851
-0.142661 0.161262 -0.017670
-0.138325 0.131853 0.009740
-0.128761 0.141256 -0.007643
-0.145875 0.195639 -0.007486
-0.145406 0.212529 -0.021126
-0.140728 0.174309 -0.002661
-0.141793 0.183644 -0.018740
0.065222 -0.411135 -0.045657
0.074069 -0.359045 -0.014191
0.065293 -0.426622 -0.031042
0.071499 -0.387643 -0.007294
0.080782 -0.338826 -0.012587
0.090431 -0.292780 0.007116
0.078192 -0.358502 -0.027172
0.089832 -0.312541 0.005373
0.042690 0.028369 -0.100026
0.049967 0.042995 -0.100361
0.045925 0.006948 -0.106441
0.052846 0.021146 -0.105541
0.025594 0.070504 -0.097868
0.034120 0.084564 -0.096608
0.029694 0.049317 -0.098760
0.039209 0.059751 -0.097741
-0.031092 -0.289294 0.036228
-0.034489 -0.263573 0.060836
-0.030829 -0.305959 0.020442
-0.032940 -0.273060 0.046457
-0.031512 -0.230891 0.099572
-0.029507 -0.213523 0.092097
-0.031811 -0.257118 0.075520
-0.032045 -0.240564 0.083330
0.112745 -0.035525 0.026364
0.116213 -0.030739 0.009305
0.139348 -0.050405 0.038286
0.134821 -0.052025 0.012015
0.105940 -0.001515 -0.005220
0.108743 0.004169 -0.022622
0.106037 -0.025685 0.008418
0.113284 -0.019259 -0.005684
-0.080395 0.218914 -0.090913
-0.066732 0.228561 -0.099059
-0.075412 0.203252 -0.094069
-0.064905 0.213390 -0.099596
-0.084431 0.252267 -0.087499
-0.072431 0.261962 -0.090051
-0.080515 0.236935 -0.092512
-0.068608 0.247200 -0.096864
-0.039227 -0.082711 -0.059639
-0.029668 -0.074719 -0.074582
-0.029039 -0.095328 -0.036175
-0.028429 -0.085589 -0.051904
-0.044709 -0.052634 -0.092697
-0.032905 -0.042177 -0.102103
-0.041103 -0.069836 -0.079548
-0.029232 -0.061695 -0.093015
-0.044556 -0.380926 0.005957
-0.042660 -0.347104 0.034914
-0.041609 -0.403208 -0.007075
-0.042622 -0.363981 0.016172
-0.046421 -0.342691 0.013274
-0.046153 -0.296060 0.033749
-0.044682 -0.360791 -0.005254
-0.044746 -0.320676 0.024416
-0.032060 0.361294 -0.058155
-0.024798 0.371828 -0.069971
-0.024545 0.339339 -0.065928
-0.014438 0.354645 -0.074142
-0.032492 0.406084 -0.058140
-0.024160 0.419490 -0.067686
-0.034637 0.382249 -0.056518
-0.029735 0.392015 -0.068536
0.094493 -0.268168 0.046020
0.084387 -0.249180 0.058291
0.090680 -0.290474 0.021209
0.086450 -0.257969 0.044358
0.083971 -0.198485 0.094683
0.088106 -0.183651 0.088003
0.079497 -0.234728 0.099836
0.081430 -0.214954 0.098932
-0.094903 0.063996 -0.028276
-0.092848 0.074962 -0.041659
-0.098345 0.045667 -0.034658
-0.096356 0.055310 -0.045429
-0.094073 0.106154 -0.034155
-0.092175 0.119011 -0.045895
-0.094521 0.085823 -0.028296
-0.092858 0.094038 -0.042460
-0.063751 -0.098050 0.100336
-0.067894 -0.090404 0.092617
-0.062126 -0.127159 0.112935
-0.065973 -0.118795 0.101895
-0.069641 -0.050436 0.072837
-0.073414 -0.036954 0.060689
-0.067614 -0.073866 0.087141
-0.069744 -0.062934 0.077651
-0.042091 0.007298 0.039020
-0.032666 0.021025 0.040115
-0.042848 -0.017678 0.050834
-0.032637 -0.005275 0.048331
-0.037557 0.060758 0.044521
-0.026589 0.071778 0.048095
-0.038991 0.037124 0.038125
-0.028528 0.049853 0.042667
-0.019190 -0.184473 0.130249
-0.021437 -0.167526 0.123655
-0.020389 -0.214980 0.132565
-0.019778 -0.201901 0.133539
-0.018680 -0.119892 0.098571
-0.019126 -0.106854 0.087782
-0.020000 -0.147385 0.111492
-0.019003 -0.134837 0.097376
-0.072157 -0.467239 0.016590
-0.056700 -0.454602 0.000954
-0.074223 -0.477622 0.027967
-0.056637 -0.472231 0.020143
-0.049869 -0.395032 -0.030435
-0.052799 -0.327728 -0.004901
-0.052092 -0.411620 -0.043375
-0.052281 -0.353782 -0.020517
-0.093401 -0.068327 -0.033341
-0.087491 -0.061004 -0.050242
-0.088077 -0.088166 -0.019106
-0.084471 -0.080954 -0.035050
-0.098142 -0.030471 -0.052909
-0.092955 -0.023339 -0.068286
-0.096170 -0.049507 -0.043814
-0.091240 -0.042905 -0.060139
-0.109409 0.241390 -0.073131
-0.099619 0.251820 -0.079833
-0.106074 0.225216 -0.077190
-0.094263 0.235449 -0.085587
-0.117559 0.268655 -0.060406
-0.105623 0.279542 -0.066856
-0.115316 0.254601 -0.068861
-0.103587 0.265787 -0.073198
-0.022205 -0.287552 0.071198
-0.027420 -0.261254 0.092083
-0.028424 -0.307541 0.058623
-0.030093 -0.282004 0.087374
-0.024498 -0.238596 0.120591
-0.027159 -0.228306 0.126936
-0.026970 -0.261255 0.109152
-0.032989 -0.249003 0.114194
0.020085 -0.163551 0.068598
0.025784 -0.155589 0.055894
0.023213 -0.187741 0.078004
0.024302 -0.177166 0.064982
-0.005458 -0.101149 0.023111
0.002943 -0.085988 0.016640
-0.000893 -0.114978 0.034848
0.012115 -0.105942 0.024367
0.052417 -0.467666 -0.021041
0.051018 -0.464380 -0.037596
0.071381 -0.473935 0.002464
0.067149 -0.467901 -0.013169
0.038763 -0.450508 -0.062110
0.037903 -0.399700 -0.044411
0.051915 -0.448336 -0.031567
0.046111 -0.426619 -0.030786
0.073716 -0.184571 0.035096
0.079034 -0.174061 0.025382
0.074386 -0.213614 0.048251
0.073749 -0.200879 0.040920
0.076135 -0.137312 -0.005756
0.079020 -0.124571 -0.012436
0.073682 -0.159874 0.018051
0.078840 -0.147118 0.009836
-0.099832 0.008990 -0.061193
-0.092253 0.020378 -0.072494
-0.098705 -0.009767 -0.059632
-0.092685 -0.001539 -0.072775
-0.094588 0.045426 -0.057388
-0.087344 0.056373 -0.066471
-0.098107 0.028095 -0.059783
-0.090679 0.039398 -0.071613
-0.135999 -0.053026 0.173270
-0.139993 -0.059680 0.150003
-0.124429 -0.069269 0.190839
-0.134285 -0.070157 0.171562
-0.118582 -0.020088 0.149475
-0.124766 -0.020979 0.129216
-0.098890 -0.032668 0.163706
-0.103806 -0.027038 0.141247
0.097139 0.202539 -0.053847
0.106294 0.210908 -0.060961
0.087347 0.189731 -0.061583
0.092918 0.200367 -0.070907
0.116658 0.202099 -0.039757
0.122305 0.217683 -0.048819
0.118487 0.169777 -0.050558
0.119582 0.191380 -0.054750
-0.050136 0.233956 0.012130
-0.036389 0.240330 0.006407
-0.052781 0.212577 0.014240
-0.038591 0.221877 0.010655
-0.052235 0.295072 -0.018298
-0.036901 0.304869 -0.022183
-0.048554 0.279500 -0.008713
-0.034384 0.289383 -0.014427
-0.034661 -0.469301 -0.008924
-0.027019 -0.459792 -0.027407
-0.038329 -0.479306 0.008936
-0.027775 -0.473022 -0.005793
-0.029249 -0.435051 -0.053674
-0.037100 -0.384546 -0.036505
-0.028195 -0.433432 -0.022222
-0.029964 -0.416053 -0.022243
-0.163898 -0.071318 0.162520
-0.166041 -0.071501 0.137605
-0.143450 -0.081725 0.185347
-0.154265 -0.082311 0.162720
-0.153408 -0.033725 0.129685
-0.151124 -0.026909 0.111712
-0.146794 -0.050625 0.149987
-0.148023 -0.051131 0.127358
0.090471 -0.192122 0.076463
0.095636 -0.178823 0.069597
0.085669 -0.221824 0.082209
0.089836 -0.206829 0.082896
0.091307 -0.156220 0.026160
0.094048 -0.144413 0.015863
0.084200 -0.173917 0.043134
0.090635 -0.163833 0.035268
-0.018514 0.021608 -0.103394
-0.008246 0.036460 -0.101349
-0.019027 -0.001324 -0.109433
-0.007301 0.012993 -0.107862
-0.021939 0.067337 -0.092795
-0.013258 0.079799 -0.092137
-0.022126 0.040317 -0.097909
-0.012725 0.053780 -0.096018
-0.106050 0.167565 -0.020647
-0.103132 0.178305 -0.028922
-0.095155 0.149809 -0.016497
-0.096912 0.160038 -0.026100
-0.121476 0.208697 -0.017252
-0.114190 0.222887 -0.026189
-0.113547 0.186023 -0.022061
-0.109835 0.200140 -0.028747
0.035804 -0.323204 0.028028
0.036631 -0.286769 0.057285
0.034362 -0.338970 0.016040
0.037522 -0.304909 0.047325
0.030711 -0.248896 0.073427
0.027269 -0.235522 0.074170
0.028282 -0.262213 0.037411
0.028124 -0.246182 0.059868
0.121838 0.118964 -0.081082
0.132772 0.129790 -0.091592
0.139065 0.087577 -0.068814
0.143923 0.103651 -0.083268
0.132135 0.145530 -0.092606
0.136343 0.159517 -0.091746
0.148691 0.120215 -0.076550
0.147837 0.140252 -0.079332
0.002856 0.049870 -0.097999
0.013304 0.062112 -0.098841
0.003773 0.027533 -0.105190
0.014208 0.040682 -0.103433
-0.003768 0.092355 -0.093773
0.005474 0.106593 -0.095067
-0.001540 0.067430 -0.095666
0.008265 0.080542 -0.094457
0.039904 -0.406477 -0.029928
0.049997 -0.360575 0.001519
0.035703 -0.422602 -0.024967
0.047303 -0.381969 0.004790
0.036886 -0.351138 -0.031887
0.039572 -0.296113 -0.014696
0.040065 -0.381027 -0.040949
0.038405 -0.316858 -0.019660
0.085417 0.187912 -0.077583
0.097892 0.197075 -0.082003
0.078247 0.174177 -0.080994
0.091889 0.182499 -0.086860
0.081229 0.230359 -0.105942
0.088908 0.239400 -0.099044
0.071538 0.208204 -0.105690
0.084154 0.214768 -0.103165
0.058312 -0.073053 -0.076558
0.063790 -0.059771 -0.084678
0.063962 -0.088981 -0.052859
0.069292 -0.078791 -0.062954
0.046946 -0.028658 -0.102697
0.053226 -0.012124 -0.106711
0.052909 -0.050543 -0.095372
0.058318 -0.034985 -0.098212
-0.067769 -0.267466 0.071073
-0.064902 -0.250462 0.073739
-0.072028 -0.285099 0.042006
-0.065131 -0.266670 0.050949
-0.067355 -0.214770 0.073545
-0.062968 -0.203648 0.062033
-0.067215 -0.233518 0.068658
-0.060645 -0.222262 0.059983
0.096329 -0.037461 0.032743
0.099323 -0.028374 0.019370
0.100934 -0.062929 0.044063
0.102658 -0.053045 0.030037
0.084302 0.008334 0.005806
0.093702 0.014782 -0.003746
0.089829 -0.014534 0.022759
0.095532 -0.006469 0.008665
-0.079648 -0.267588 0.048146
-0.069076 -0.250750 0.043324
-0.064306 -0.301195 0.020074
-0.065867 -0.268759 0.036132
-0.074818 -0.242436 0.086444
-0.073827 -0.226401 0.082668
-0.076313 -0.256220 0.059740
-0.073652 -0.241533 0.058874
0.075232 -0.333249 0.017698
0.080574 -0.297705 0.042936
0.074913 -0.350754 0.004670
0.074642 -0.310376 0.032707
0.092417 -0.300106 0.031323
0.083656 -0.270340 0.055334
0.082490 -0.307871 0.018027
0.086014 -0.275408 0.036195
0.054182 0.307019 -0.093925
0.076053 0.304568 -0.091509
0.041528 0.296795 -0.105997
0.062016 0.299909 -0.104987
0.084683 0.310534 -0.078295
0.100106 0.306306 -0.068974
0.102263 0.292062 -0.083629
0.111038 0.297533 -0.076155
-0.044384 0.407701 -0.000007
-0.043718 0.418497 -0.011884
-0.040336 0.377998 0.008991
-0.041582 0.393249 0.005797
-0.039612 0.448739 -0.012971
-0.032187 0.461451 -0.020363
-0.047515 0.431427 -0.027644
-0.041827 0.449412 -0.030690
0.111056 0.138704 -0.067764
0.116908 0.154933 -0.079005
0.123211 0.118249 -0.056324
0.130014 0.132352 -0.074910
0.143392 0.163897 -0.075467
0.145584 0.183898 -0.066874
0.154113 0.141851 -0.063563
0.152827 0.157381 -0.064952
-0.111515 0.296808 -0.047736
-0.095181 0.304970 -0.050284
-0.116942 0.283557 -0.051755
-0.101368 0.293230 -0.059117
-0.074718 0.318015 -0.037267
-0.054902 0.326324 -0.038606
-0.080950 0.315669 -0.047094
-0.061945 0.317081 -0.051586
-0.005181 0.149081 -0.100488
0.004002 0.162865 -0.101840
-0.002388 0.123427 -0.096701
0.006577 0.137643 -0.098910
-0.005479 0.200697 -0.109678
0.008068 0.211757 -0.114203
-0.002575 0.180022 -0.107499
0.009114 0.193384 -0.110698
0.034792 0.354047 -0.011945
0.034940 0.367278 -0.022288
0.031236 0.334071 -0.027051
0.026318 0.352877 -0.028013
0.032735 0.421454 -0.016219
0.040800 0.425664 -0.033697
0.039708 0.392651 -0.017437
0.038104 0.401800 -0.031470
0.066766 -0.380831 0.003699
0.079739 -0.347118 0.031418
0.065796 -0.398460 -0.005115
0.079316 -0.362916 0.022171
0.081313 -0.349573 0.017120
0.089757 -0.314555 0.047736
0.078049 -0.368342 0.004816
0.086776 -0.333140 0.037759
0.074276 -0.407066 -0.021616
0.087054 -0.360851 0.001834
0.066354 -0.419643 -0.009907
0.076241 -0.378849 0.014271
0.081525 -0.375507 -0.011442
0.091978 -0.324082 0.011455
0.077211 -0.391057 -0.025426
0.088548 -0.340627 0.002411
-0.024675 0.208075 0.033232
-0.014621 0.219358 0.026975
-0.023045 0.190178 0.037120
-0.011679 0.201608 0.033026
-0.029831 0.251701 0.015927
-0.020404 0.261249 0.010427
-0.027392 0.227856 0.025035
-0.019466 0.239824 0.020987
-0.073186 -0.189524 0.091570
-0.078395 -0.181274 0.076194
-0.072696 -0.213811 0.093366
-0.074810 -0.201740 0.083824
-0.084724 -0.151387 0.079454
-0.085962 -0.149176 0.060366
-0.080059 -0.169692 0.086190
-0.082615 -0.165383 0.070090
-0.012713 0.277486 0.006643
0.000972 0.288353 0.005138
-0.005315 0.261371 0.011902
0.004154 0.273912 0.006837
-0.010020 0.333399 0.003651
-0.001898 0.348754 0.005148
-0.003872 0.310436 0.008460
0.003110 0.327269 0.010546
0.080164 -0.196486 0.054433
0.084222 -0.186304 0.047040
0.087426 -0.222040 0.072324
0.082629 -0.207928 0.064811
0.087617 -0.141272 0.030282
0.089579 -0.129512 0.021876
0.086064 -0.160400 0.052073
0.091779 -0.149557 0.045477
-0.008613 0.414025 0.041107
0.005763 0.425638 0.032343
-0.000805 0.389989 0.043539
0.010560 0.401469 0.038664
-0.002546 0.475397 0.001868
0.008476 0.476690 -0.014323
-0.001592 0.457489 0.016911
0.011742 0.463213 0.004944
-0.041935 -0.341374 -0.011566
-0.041668 -0.283851 0.019509
-0.048133 -0.373528 -0.021536
-0.045141 -0.308332 0.004140
-0.032423 -0.215601 0.058050
-0.025632 -0.202489 0.048112
-0.032863 -0.247322 0.044018
-0.028345 -0.232211 0.053524
0.042679 -0.237219 0.101404
0.038994 -0.223443 0.104485
0.045994 -0.260894 0.068043
0.041807 -0.246478 0.085830
0.031587 -0.161883 0.076303
0.032777 -0.148612 0.067255
0.030150 -0.186294 0.093008
0.030289 -0.174506 0.082156
-0.098637 0.164248 -0.056268
-0.097622 0.176053 -0.067125
-0.093709 0.149680 -0.053097
-0.090415 0.158425 -0.067205
-0.107535 0.210164 -0.065831
-0.097113 0.224827 -0.073804
-0.103131 0.191805 -0.068511
-0.094254 0.207778 -0.076803
-0.089150 0.018869 0.015946
-0.084377 0.033504 0.012023
-0.081675 0.001073 0.031471
-0.077579 0.013242 0.025712
-0.075508 0.080465 0.014438
-0.074476 0.097439 0.014389
-0.078993 0.049461 0.012661
-0.077969 0.064385 0.011153
0.103781 0.225081 -0.060047
0.114952 0.230696 -0.058301
0.090655 0.213369 -0.070437
0.104483 0.219241 -0.076080
0.115840 0.287528 -0.065547
0.121102 0.285980 -0.052642
0.121996 0.264727 -0.064249
0.123367 0.268511 -0.048399
0.067506 -0.236254 0.110943
0.065306 -0.216591 0.116316
0.072550 -0.262064 0.088564
0.070819 -0.246733 0.095023
0.063332 -0.166644 0.106642
0.064570 -0.151182 0.099762
0.064491 -0.199365 0.116632
0.065729 -0.183575 0.110389
0.024404 0.219811 0.022492
0.033534 0.229552 0.014916
0.025836 0.199202 0.026949
0.036758 0.208419 0.021448
0.015930 0.263073 0.008159
0.024280 0.273490 0.003754
0.022327 0.242657 0.013979
0.029804 0.254426 0.006753
0.042608 -0.246778 0.052270
0.040551 -0.231943 0.061350
0.043415 -0.275458 0.018583
0.044077 -0.250598 0.036838
0.030994 -0.160975 0.026569
0.032355 -0.148034 0.017582
0.028564 -0.185929 0.047899
0.032483 -0.176266 0.034994
-0.071559 -0.294538 0.072887
-0.076256 -0.277097 0.076473
-0.077367 -0.317659 0.055547
-0.081798 -0.285230 0.060212
-0.064349 -0.259261 0.110061
-0.066959 -0.247620 0.115195
-0.067381 -0.279387 0.088996
-0.071758 -0.260440 0.092379
-0.145097 -0.028010 0.147378
-0.142699 -0.026744 0.123949
-0.117425 -0.046084 0.160551
-0.125177 -0.042797 0.138378
-0.144116 0.000952 0.127560
-0.143598 -0.000944 0.104927
-0.115510 -0.000947 0.132457
-0.117778 -0.003351 0.111292
-0.072240 -0.089461 -0.040328
-0.067369 -0.080609 -0.054608
-0.065097 -0.109169 -0.023408
-0.059186 -0.099519 -0.035957
-0.083541 -0.051813 -0.069890
-0.075834 -0.043189 -0.083695
-0.080279 -0.071578 -0.055108
-0.073989 -0.064056 -0.070156
0.088412 0.233939 -0.005533
0.099677 0.238722 -0.019568
0.087599 0.212305 -0.007909
0.087319 0.224710 -0.019939
0.083998 0.273560 -0.020928
0.093427 0.279541 -0.027275
0.088431 0.255966 -0.014644
0.100289 0.259783 -0.024627
-0.030830 0.438738 -0.078355
-0.019663 0.448866 -0.086030
-0.034306 0.414306 -0.076321
-0.022658 0.426314 -0.084369
-0.016402 0.474061 -0.053604
-0.000875 0.482815 -0.049400
-0.024368 0.458605 -0.069948
-0.015089 0.469452 -0.072230
0.095789 -0.036367 -0.050838
0.093702 -0.022456 -0.055048
0.097481 -0.058104 -0.036584
0.097333 -0.045044 -0.042284
0.081511 -0.001609 -0.080876
0.088950 0.010888 -0.074799
0.089546 -0.018431 -0.068634
0.089746 -0.002832 -0.066290
-0.142828 0.249090 -0.011122
-0.134424 0.261968 -0.014412
-0.142749 0.221493 -0.000181
-0.138776 0.231935 -0.012560
-0.110678 0.307360 -0.019771
-0.090622 0.312592 -0.029837
-0.115543 0.300767 -0.002940
-0.097340 0.305207 -0.010206
0.147962 0.050980 -0.016157
0.149191 0.055594 -0.037982
0.160306 0.027652 0.002570
0.164326 0.035288 -0.019111
0.159431 0.084960 -0.024342
0.172155 0.094784 -0.043641
0.170617 0.059164 -0.011854
0.179089 0.069996 -0.032772
0.110384 0.184782 -0.070822
0.113816 0.199576 -0.074161
0.110922 0.161134 -0.064774
0.119976 0.174742 -0.072988
0.132545 0.188409 -0.046926
0.130387 0.205589 -0.055677
0.133747 0.154342 -0.057227
0.137321 0.172598 -0.057305
0.068153 -0.043078 -0.090330
0.070570 -0.026116 -0.090890
0.072850 -0.063603 -0.072459
0.075630 -0.046266 -0.078549
0.060012 0.006525 -0.098642
0.070756 0.020675 -0.094094
0.063964 -0.013919 -0.096041
0.071710 0.000374 -0.093362
0.087797 -0.233868 0.064467
0.087240 -0.222122 0.054632
0.090612 -0.251262 0.036505
0.089281 -0.240157 0.049712
0.088073 -0.180300 0.060244
0.097351 -0.170770 0.052463
0.092197 -0.207691 0.064895
0.093426 -0.194851 0.060326
0.056620 -0.212134 0.043043
0.057002 -0.201994 0.034673
0.059859 -0.243978 0.033638
0.058958 -0.228164 0.046108
0.048292 -0.162993 0.000353
0.047620 -0.149135 -0.010496
0.046378 -0.185499 0.025094
0.046862 -0.176723 0.011782
0.083744 -0.239014 0.077702
0.087364 -0.230708 0.089943
0.092015 -0.264540 0.061348
0.089659 -0.250001 0.071858
0.110923 -0.054717 0.054570
0.110956 -0.049647 0.038984
0.150657 -0.058131 0.078507
0.159428 -0.052855 0.055034
-0.093522 -0.119328 0.058157
-0.093531 -0.114878 0.040512
-0.089761 -0.135730 0.069182
-0.089248 -0.132366 0.051650
-0.099592 -0.080925 0.038553
-0.100984 -0.080570 0.020697
-0.096018 -0.100177 0.048346
