ply
format ascii 1.0
element vertex 1681
property float x
property float y
property float z
end_header
-0.018053 -0.301820 0.047531
-0.016224 -0.269708 0.071701
-0.017528 -0.313894 0.027403
-0.013546 -0.282189 0.051204
-0.008919 -0.242965 0.090687
-0.005783 -0.228115 0.098188
-0.006838 -0.265877 0.056126
-0.006541 -0.250762 0.074849
-0.050177 0.281251 -0.089038
-0.033943 0.287091 -0.090524
-0.053322 0.262253 -0.098084
-0.038666 0.271497 -0.097792
-0.039692 0.310987 -0.068153
-0.023029 0.313811 -0.073596
-0.045164 0.298999 -0.082013
-0.026245 0.302900 -0.084484
-0.092080 0.072616 -0.017638
-0.087209 0.085960 -0.021022
-0.087370 0.050302 -0.007993
-0.086574 0.061575 -0.019104
-0.089682 0.124907 -0.019889
-0.088925 0.137268 -0.026658
-0.087878 0.101526 -0.019271
-0.085328 0.113782 -0.028832
0.149724 -0.032919 0.073608
0.153332 -0.030420 0.046910
0.175475 -0.059475 0.083536
0.190567 -0.057981 0.057807
0.165600 -0.022209 0.049080
0.164073 -0.026165 0.018233
0.185961 -0.044200 0.053920
0.187934 -0.050620 0.027765
-0.061093 -0.457166 -0.039902
-0.043731 -0.446341 -0.043458
-0.051544 -0.462848 -0.016605
-0.041703 -0.457113 -0.033298
-0.058265 -0.430562 -0.050929
-0.048532 -0.388886 -0.037570
-0.053669 -0.450291 -0.051407
-0.043779 -0.417766 -0.046757
0.087368 0.254747 -0.104332
0.093403 0.264428 -0.099091
0.095457 0.231815 -0.101107
0.104231 0.246189 -0.094144
0.111026 0.201882 -0.098246
0.117169 0.218487 -0.094805
0.111243 0.168266 -0.093153
0.115215 0.185793 -0.093222
-0.120183 0.215308 -0.046684
-0.119485 0.231271 -0.052396
-0.114429 0.199434 -0.049643
-0.113169 0.212074 -0.060015
-0.126829 0.242322 -0.057103
-0.120990 0.252468 -0.067050
-0.119539 0.221624 -0.065191
-0.114440 0.236267 -0.069779
0.052744 0.014474 0.023458
0.058983 0.026640 0.013298
0.059338 -0.007107 0.033370
0.064283 0.004933 0.021661
0.045957 0.049056 0.028142
0.054263 0.061445 0.021851
0.046283 0.031716 0.023807
0.055690 0.043986 0.013177
-0.015655 0.402782 -0.073110
-0.009163 0.414458 -0.083002
-0.007869 0.378278 -0.065128
-0.003789 0.393674 -0.073643
-0.006124 0.452208 -0.071261
0.008483 0.463827 -0.066405
-0.003118 0.431393 -0.072731
0.004349 0.445432 -0.076231
0.046668 -0.439921 -0.046449
0.054620 -0.391041 -0.020151
0.040182 -0.444146 -0.010622
0.042904 -0.408628 0.003754
0.039318 -0.399993 -0.045960
0.047167 -0.333231 -0.014447
0.040624 -0.419962 -0.056624
0.048896 -0.363493 -0.023285
0.023906 0.028405 0.037121
0.034131 0.038836 0.030553
0.023634 0.007720 0.038531
0.035104 0.018243 0.029710
0.026485 0.074977 0.043855
0.037851 0.084866 0.037406
0.027563 0.051876 0.041334
0.037548 0.062790 0.035407
-0.064922 0.064362 0.019154
-0.060587 0.079723 0.019093
-0.068027 0.034879 0.016771
-0.064888 0.051482 0.013548
-0.061992 0.118623 0.017190
-0.056650 0.132508 0.019817
-0.063489 0.094250 0.019433
-0.055075 0.106331 0.022472
0.030565 -0.143261 0.000888
0.040493 -0.136770 -0.013141
0.033719 -0.165954 0.021270
0.037103 -0.153189 0.007982
0.015302 -0.094946 -0.041062
0.019520 -0.084165 -0.054457
0.020446 -0.117056 -0.021773
0.021900 -0.104598 -0.037360
-0.039677 0.426883 0.004771
-0.034035 0.441633 -0.000822
-0.031749 0.400416 0.018890
-0.029146 0.416344 0.016306
-0.022695 0.474301 -0.029203
-0.007548 0.483772 -0.031853
-0.022328 0.468720 -0.005560
-0.009909 0.477026 -0.014191
0.141301 -0.003020 0.017699
0.144559 -0.000135 -0.010054
0.167936 -0.020590 0.029917
0.166434 -0.019628 0.004560
0.164339 0.023804 -0.011974
0.160580 0.033039 -0.033765
0.166159 0.001376 0.013699
0.169821 0.001878 -0.007260
-0.071638 -0.145710 0.025961
-0.069468 -0.137120 0.011246
-0.066996 -0.170068 0.046762
-0.065242 -0.159175 0.030828
-0.083841 -0.104120 -0.005768
-0.080314 -0.098213 -0.022114
-0.079172 -0.122851 0.007890
-0.073358 -0.116595 -0.007344
0.029510 0.125401 0.037872
0.035652 0.139477 0.034530
0.030177 0.096972 0.043826
0.036942 0.110172 0.036830
0.030593 0.179710 0.029198
0.039639 0.190087 0.021809
0.030297 0.153621 0.032662
0.037664 0.167878 0.028071
0.037466 0.144336 -0.104044
0.048643 0.153164 -0.102830
0.037948 0.118529 -0.098567
0.047201 0.132073 -0.097706
0.052006 0.183463 -0.110815
0.061903 0.194878 -0.110204
0.044957 0.165354 -0.109776
0.057715 0.175344 -0.107518
-0.095631 0.228341 0.019053
-0.080808 0.241292 0.019674
-0.087300 0.206288 0.017830
-0.078007 0.223485 0.014101
-0.079416 0.296072 -0.000543
-0.065576 0.301597 -0.009721
-0.079275 0.278784 0.013104
-0.063963 0.286313 0.003872
-0.161650 0.105595 0.013974
-0.155375 0.110899 -0.000631
-0.131657 0.099710 0.015328
-0.124576 0.105465 -0.000535
-0.156167 0.127848 0.011832
-0.151525 0.135062 -0.006821
-0.134006 0.120136 0.004772
-0.121694 0.129116 -0.008027
-0.038440 -0.184428 0.145249
-0.040310 -0.178052 0.126287
-0.043578 -0.208270 0.148024
-0.048942 -0.195396 0.137836
-0.046607 -0.145996 0.129030
-0.055250 -0.137095 0.112054
-0.044702 -0.165500 0.138784
-0.049423 -0.157872 0.122945
-0.092200 0.143932 -0.038644
-0.093393 0.153920 -0.049076
-0.089700 0.122507 -0.039833
-0.087789 0.132150 -0.048157
-0.101885 0.188283 -0.051560
-0.104788 0.199389 -0.062868
-0.098422 0.169534 -0.050585
-0.099129 0.181025 -0.063173
-0.058703 -0.182128 0.144643
-0.071489 -0.171122 0.135224
-0.061315 -0.217271 0.142215
-0.065297 -0.198529 0.143624
-0.065204 -0.139613 0.122365
-0.074515 -0.130647 0.109465
-0.060537 -0.167328 0.130845
-0.070294 -0.156174 0.123455
-0.086309 0.091455 -0.061865
-0.082037 0.103509 -0.071683
-0.088450 0.071204 -0.060424
-0.081261 0.082439 -0.070567
-0.092551 0.136294 -0.058670
-0.089725 0.143045 -0.071366
-0.085866 0.114851 -0.060542
-0.085165 0.126119 -0.071388
0.086221 0.118845 -0.018736
0.093770 0.130877 -0.027988
0.086535 0.095903 -0.028515
0.089111 0.109038 -0.033807
0.089485 0.179141 -0.028490
0.094744 0.188071 -0.041952
0.092976 0.161925 -0.035494
0.093095 0.174102 -0.039097
0.105723 -0.076101 0.009212
0.106313 -0.065182 -0.000184
0.101500 -0.099478 0.027789
0.104629 -0.089828 0.015841
0.105973 -0.024049 -0.020762
0.105242 -0.013366 -0.031410
0.104694 -0.053351 -0.007197
0.106267 -0.041961 -0.014210
0.006470 0.200272 0.025865
0.016549 0.210918 0.020391
0.009234 0.177560 0.030174
0.018388 0.189258 0.025615
-0.001388 0.239869 0.017374
0.007381 0.251328 0.012175
0.001801 0.219251 0.019454
0.013115 0.229892 0.015227
0.067600 0.038244 0.004450
0.067943 0.050217 -0.006528
0.071566 0.017374 0.010789
0.075890 0.027843 -0.000945
0.063129 0.077270 0.017441
0.066082 0.093544 0.011787
0.066535 0.057649 0.010717
0.067540 0.071847 0.002728
0.033658 0.397955 0.022127
0.041442 0.405804 0.012767
0.036465 0.371827 0.020459
0.040827 0.384037 0.009762
0.028608 0.446737 0.012061
0.032461 0.451398 -0.003698
0.031404 0.425436 0.017829
0.035790 0.432178 0.002425
-0.068661 0.183519 0.012784
-0.065316 0.199197 0.015528
-0.063649 0.158606 0.014186
-0.058209 0.173660 0.014764
-0.069673 0.233696 0.019512
-0.061790 0.249247 0.011998
-0.069071 0.213059 0.020770
-0.057481 0.226656 0.014860
0.007917 0.109794 0.045961
0.018186 0.120345 0.042840
0.009640 0.085030 0.048408
0.017778 0.097807 0.044601
0.009885 0.154171 0.035406
0.019822 0.166374 0.030948
0.011441 0.133749 0.039674
0.021658 0.143563 0.037393
0.119363 0.264955 -0.086588
0.120791 0.267059 -0.070712
0.128040 0.233921 -0.091780
0.129841 0.243366 -0.074503
0.130541 0.224053 -0.065026
0.129434 0.233292 -0.052487
0.136002 0.191530 -0.071249
0.135071 0.208437 -0.065247
-0.034929 -0.088223 0.094272
-0.034687 -0.078702 0.082153
-0.034830 -0.115989 0.110537
-0.038189 -0.104118 0.097424
-0.044534 -0.039966 0.062761
-0.037753 -0.029007 0.054985
-0.042923 -0.062909 0.077299
-0.036844 -0.051692 0.066286
-0.085055 0.280994 -0.080566
-0.067083 0.288113 -0.085268
-0.084136 0.267029 -0.089429
-0.067525 0.273479 -0.091147
-0.075330 0.308751 -0.064358
-0.054745 0.310942 -0.067126
-0.079708 0.295735 -0.073210
-0.060919 0.301245 -0.076732
0.024183 0.327706 -0.003763
0.025109 0.342794 -0.009124
0.028657 0.307811 -0.011294
0.032247 0.323275 -0.019263
0.036418 0.393442 0.004935
0.045564 0.405235 -0.006852
0.036053 0.373377 -0.003927
0.037639 0.385311 -0.018171
-0.083371 -0.010415 -0.088943
-0.073335 0.002341 -0.097290
-0.084219 -0.032628 -0.085121
-0.075067 -0.020954 -0.095115
-0.077740 0.031312 -0.087451
-0.066413 0.044964 -0.093622
-0.080529 0.010895 -0.088671
-0.069610 0.024983 -0.096971
0.069743 -0.089745 0.082001
0.071395 -0.076873 0.071385
0.066719 -0.120028 0.099571
0.066087 -0.105815 0.089304
0.065923 -0.033624 0.046727
0.070063 -0.021890 0.034376
0.070847 -0.060077 0.064442
0.073441 -0.047549 0.053054
-0.041270 0.374000 -0.035144
-0.041543 0.383357 -0.049795
-0.044228 0.351331 -0.031103
-0.038760 0.361973 -0.043429
-0.044944 0.428852 -0.049941
-0.041262 0.440562 -0.061569
-0.045002 0.407631 -0.054325
-0.041128 0.418590 -0.065902
-0.114347 0.256609 0.009299
-0.102085 0.268206 0.006102
-0.110972 0.231930 0.010767
-0.100562 0.247415 0.011571
-0.112103 0.294287 0.004284
-0.097457 0.301555 0.000580
-0.105578 0.281500 0.013211
-0.091846 0.289513 0.009110
-0.023198 0.225301 -0.109601
-0.009998 0.234559 -0.111285
-0.018205 0.206796 -0.109672
-0.006322 0.217381 -0.111605
-0.025640 0.262829 -0.102930
-0.008598 0.269515 -0.104917
-0.023549 0.245839 -0.106570
-0.008578 0.252498 -0.107336
-0.154603 0.107993 0.048605
-0.161212 0.115969 0.031772
-0.132205 0.094173 0.053616
-0.119202 0.104392 0.033395
-0.148341 0.129520 0.038539
-0.144189 0.141538 0.023111
-0.126827 0.122261 0.040889
-0.116811 0.131402 0.020962
0.024680 -0.168606 0.059102
0.027362 -0.154439 0.048624
0.024255 -0.195886 0.078715
0.023122 -0.181809 0.071016
0.000326 -0.102992 0.011945
0.007861 -0.095073 0.000318
0.010806 -0.123980 0.024976
0.014315 -0.114573 0.011148
-0.133308 0.268413 -0.033589
-0.129298 0.282398 -0.040362
-0.131141 0.253538 -0.044028
-0.125598 0.265323 -0.055983
-0.121293 0.291789 -0.031730
-0.107571 0.304058 -0.037869
-0.122164 0.277908 -0.044545
-0.115555 0.291335 -0.046577
-0.127941 0.240354 0.002684
-0.124459 0.250319 -0.004852
-0.134229 0.206070 -0.010736
-0.126973 0.224572 -0.015322
-0.130890 0.280042 -0.019923
-0.119578 0.294175 -0.017312
-0.125541 0.268904 0.000110
-0.115742 0.281107 -0.006763
0.018179 -0.066309 0.045294
0.028327 -0.054042 0.045784
0.022958 -0.095165 0.057149
0.028560 -0.081038 0.055476
0.015289 -0.015991 0.045617
0.027669 -0.006273 0.037327
0.014803 -0.045089 0.049866
0.024234 -0.030762 0.045650
-0.106485 0.171493 -0.000823
-0.099351 0.188966 -0.005448
-0.097858 0.162210 -0.012128
-0.095409 0.176459 -0.020348
-0.117110 0.208172 -0.006620
-0.114722 0.222477 -0.014682
-0.114492 0.185095 -0.012534
-0.110408 0.201581 -0.020142
0.043269 -0.465886 0.037708
0.040129 -0.454543 0.016386
0.042883 -0.460116 0.059865
0.053349 -0.448795 0.047954
0.034336 -0.433620 0.020122
0.046664 -0.406786 0.027556
0.036264 -0.446724 0.039591
0.045677 -0.428718 0.035574
0.058741 0.049925 -0.093327
0.062427 0.063926 -0.095023
0.063076 0.028592 -0.097743
0.072243 0.042607 -0.093972
0.039979 0.095783 -0.094754
0.047610 0.106877 -0.094315
0.047416 0.072659 -0.095043
0.053493 0.085119 -0.094077
0.046316 0.099256 0.031005
0.053712 0.111068 0.026783
0.048232 0.073131 0.031445
0.054853 0.085253 0.025120
0.046737 0.154989 0.027064
0.051263 0.167116 0.017243
0.046513 0.126057 0.028369
0.051083 0.141371 0.024569
-0.141318 0.160123 0.021297
-0.138836 0.173613 0.007637
-0.124855 0.151300 0.024162
-0.115698 0.164783 0.011431
-0.137801 0.194069 0.007657
-0.126339 0.219865 0.004306
-0.124272 0.177295 0.019245
-0.119273 0.194021 0.008063
-0.018608 -0.165060 0.111167
-0.025023 -0.154215 0.099880
-0.022071 -0.196830 0.123442
-0.025205 -0.182648 0.114605
-0.017032 -0.115450 0.082292
-0.013838 -0.105449 0.066537
-0.012476 -0.148353 0.099560
-0.016211 -0.133703 0.086840
0.050014 -0.186774 0.127041
0.048827 -0.171736 0.118541
0.051303 -0.216540 0.137167
0.049132 -0.199535 0.134560
0.052825 -0.126734 0.099922
0.053837 -0.112023 0.090967
0.050314 -0.151452 0.109493
0.053215 -0.138926 0.101623
0.076126 0.145968 0.001195
0.078910 0.159950 -0.006757
0.083434 0.123115 -0.001338
0.079792 0.135089 -0.010598
0.083062 0.195005 -0.014435
0.088244 0.205479 -0.025105
0.081103 0.176184 -0.014916
0.084833 0.188807 -0.029148
-0.074351 -0.203126 0.130392
-0.078442 -0.193479 0.116627
-0.073218 -0.222955 0.129639
-0.077250 -0.215575 0.115049
-0.078183 -0.161331 0.111255
-0.086634 -0.152917 0.097563
-0.076734 -0.181793 0.121271
-0.083634 -0.173119 0.104444
0.033400 0.199451 -0.116115
0.047915 0.206983 -0.114759
0.034865 0.173040 -0.110136
0.042404 0.188342 -0.113972
0.058158 0.220038 -0.115656
0.071289 0.229825 -0.113436
0.061161 0.204040 -0.114005
0.070701 0.215772 -0.113142
0.040122 -0.094379 0.073388
0.043887 -0.079969 0.067126
0.039463 -0.122327 0.090072
0.042796 -0.105682 0.083376
0.034829 -0.040086 0.050282
0.040940 -0.027090 0.045182
0.036240 -0.068378 0.058771
0.044357 -0.054562 0.054225
0.055877 0.117425 -0.089896
0.060886 0.131062 -0.091860
0.059254 0.095970 -0.089182
0.065427 0.108285 -0.086776
0.058874 0.159012 -0.102884
0.066051 0.172553 -0.099264
0.060051 0.143682 -0.098704
0.070096 0.154148 -0.093975
-0.097321 -0.046330 0.042467
-0.101328 -0.039772 0.026370
-0.093407 -0.062559 0.054309
-0.098269 -0.058929 0.037477
-0.095584 -0.001687 0.018938
-0.098987 0.008640 0.004030
-0.094462 -0.026267 0.033760
-0.100029 -0.016558 0.018177
0.084373 0.157939 -0.018065
0.091325 0.168102 -0.022083
0.084635 0.141736 -0.020089
0.090986 0.151849 -0.028112
0.102266 0.216487 -0.022254
0.104115 0.230723 -0.034098
0.099914 0.190967 -0.023526
0.101497 0.202756 -0.035054
0.080117 -0.295553 0.006310
0.089899 -0.262573 0.038317
0.083127 -0.317643 0.003153
0.082229 -0.270079 0.027564
0.078965 -0.236448 0.046664
0.076724 -0.225278 0.055703
0.079255 -0.271081 0.016439
0.075899 -0.249052 0.037780
-0.061309 0.012282 -0.100854
-0.050919 0.025826 -0.103445
-0.063535 -0.010298 -0.100368
-0.051941 0.001253 -0.105741
-0.053035 0.061643 -0.092778
-0.047355 0.078950 -0.091822
-0.054918 0.039848 -0.096459
-0.045193 0.052802 -0.099096
0.090414 0.135678 -0.058113
0.090493 0.150052 -0.065252
0.085881 0.123199 -0.063993
0.085195 0.134853 -0.070578
0.104765 0.181662 -0.048317
0.105458 0.191098 -0.060665
0.092396 0.173810 -0.054271
0.101611 0.178671 -0.068389
-0.076622 -0.161218 0.061947
-0.076945 -0.155043 0.046530
-0.071797 -0.186416 0.080529
-0.070331 -0.176770 0.064374
-0.090192 -0.126173 0.039739
-0.086861 -0.122932 0.022157
-0.085360 -0.142907 0.050651
-0.081957 -0.139461 0.034325
0.037760 -0.171197 0.110410
0.039881 -0.157340 0.101026
0.040960 -0.204562 0.124879
0.035586 -0.188617 0.118587
0.030932 -0.120379 0.074237
0.033943 -0.105758 0.066304
0.035133 -0.146600 0.093741
0.033784 -0.133005 0.084364
-0.041131 -0.009530 -0.109458
-0.028522 0.004068 -0.111137
-0.041160 -0.030683 -0.107510
-0.028429 -0.018129 -0.111540
-0.037767 0.037052 -0.099266
-0.028540 0.050976 -0.100027
-0.040677 0.012924 -0.106744
-0.030142 0.024410 -0.108995
0.125621 0.086220 -0.039273
0.124139 0.097605 -0.057846
0.138257 0.069394 -0.028534
0.137200 0.079379 -0.049929
0.135161 0.119743 -0.039141
0.138601 0.137383 -0.048910
0.145513 0.100422 -0.029892
0.154175 0.112129 -0.049396
0.061824 0.140704 0.014190
0.062476 0.153128 0.009264
0.059707 0.112304 0.017058
0.064229 0.126100 0.011315
0.051979 0.196846 0.023071
0.058888 0.210001 0.014571
0.056090 0.175841 0.023043
0.059288 0.186803 0.014124
-0.054295 -0.463803 0.063560
-0.040011 -0.453156 0.049875
-0.054436 -0.471558 0.083239
-0.038699 -0.465549 0.063508
-0.056620 -0.430419 0.037508
-0.054306 -0.397607 0.043518
-0.054319 -0.442010 0.056678
-0.047815 -0.422409 0.047870
-0.073469 0.071996 -0.078786
-0.061277 0.083491 -0.087044
-0.074854 0.052471 -0.082724
-0.065893 0.064266 -0.088041
-0.072076 0.111387 -0.080922
-0.064112 0.121908 -0.087694
-0.071218 0.092552 -0.079864
-0.060235 0.100657 -0.086813
-0.015133 0.293583 -0.088937
0.002559 0.299763 -0.088956
-0.019088 0.278061 -0.095642
-0.002238 0.286830 -0.097595
-0.006387 0.323089 -0.078738
0.007494 0.334827 -0.080865
-0.010304 0.307987 -0.082238
0.004657 0.314873 -0.083898
-0.078084 0.146494 -0.077782
-0.072558 0.158431 -0.088731
-0.074754 0.126462 -0.075235
-0.069468 0.139672 -0.084787
-0.084740 0.190243 -0.083139
-0.081069 0.202179 -0.091321
-0.077249 0.171202 -0.081884
-0.077285 0.180280 -0.091603
0.079960 -0.084743 -0.042654
0.082886 -0.076129 -0.054114
0.079361 -0.108497 -0.019105
0.083861 -0.096963 -0.030844
0.084011 -0.032228 -0.081087
0.084458 -0.016345 -0.084099
0.085188 -0.056326 -0.066804
0.087496 -0.038835 -0.068064
-0.132025 0.194872 -0.036232
-0.132340 0.210378 -0.045546
-0.125465 0.171436 -0.027479
-0.124527 0.183576 -0.041493
-0.139763 0.242472 -0.031173
-0.138552 0.249874 -0.045109
-0.136778 0.226421 -0.041334
-0.132722 0.232964 -0.054129
-0.061343 -0.384088 0.026533
-0.072589 -0.343795 0.051712
-0.061576 -0.401003 0.014249
-0.072115 -0.362613 0.041884
-0.064283 -0.350616 0.036338
-0.071381 -0.319056 0.064179
-0.064384 -0.367744 0.016567
-0.069193 -0.320359 0.050531
-0.082783 0.107937 -0.006105
-0.081563 0.121941 -0.007413
-0.083330 0.078071 -0.004054
-0.080613 0.094027 -0.007089
-0.083859 0.158034 -0.008177
-0.082809 0.173403 -0.009287
-0.080636 0.136285 -0.009634
-0.082096 0.147948 -0.011435
-0.060255 -0.254541 0.039070
-0.051448 -0.235958 0.047187
-0.054468 -0.286001 0.017935
-0.051560 -0.255469 0.044916
-0.055711 -0.200178 0.057712
-0.048846 -0.194048 0.045010
-0.059133 -0.224204 0.052880
-0.044711 -0.212597 0.051166
-0.019395 0.120391 -0.098688
-0.010453 0.135502 -0.100328
-0.015831 0.097988 -0.095503
-0.006163 0.111841 -0.097251
-0.025075 0.176997 -0.105670
-0.014190 0.187824 -0.107805
-0.018712 0.155633 -0.102193
-0.009488 0.168780 -0.103098
-0.013879 -0.063528 -0.090543
-0.000618 -0.057581 -0.102558
-0.012107 -0.076588 -0.075919
-0.000295 -0.067929 -0.086729
-0.018778 -0.031018 -0.109501
-0.007858 -0.017773 -0.112662
-0.016400 -0.047556 -0.101993
-0.004651 -0.039407 -0.110655
0.080324 0.066216 -0.063621
0.087165 0.078222 -0.062103
0.083103 0.043895 -0.067360
0.081742 0.059328 -0.073387
0.074550 0.103105 -0.073126
0.081498 0.114684 -0.068910
0.074694 0.083351 -0.069607
0.083827 0.094467 -0.066704
-0.106338 -0.009207 0.002669
-0.107715 -0.002739 -0.012794
-0.105595 -0.030050 0.013506
-0.107642 -0.026608 -0.001813
-0.095101 0.037859 -0.010353
-0.096987 0.047979 -0.023688
-0.099601 0.018416 -0.006819
-0.100951 0.027707 -0.019280
0.029015 -0.019551 -0.115650
0.040807 -0.007201 -0.115137
0.033215 -0.041860 -0.110388
0.040415 -0.026360 -0.113616
0.023822 0.021395 -0.109657
0.034814 0.034669 -0.110213
0.023831 0.000704 -0.116424
0.035952 0.016084 -0.113094
-0.046336 -0.452605 0.000728
-0.044815 -0.438120 -0.010342
-0.061041 -0.455376 0.034790
-0.051030 -0.444568 0.019470
-0.029287 -0.383714 -0.011603
-0.031364 -0.310982 0.012177
-0.035860 -0.399029 -0.024512
-0.032733 -0.345731 0.004613
-0.041133 0.095209 -0.093491
-0.031971 0.107322 -0.094929
-0.037526 0.066451 -0.095168
-0.029541 0.082419 -0.094084
-0.040128 0.152036 -0.097304
-0.034332 0.164741 -0.102248
-0.034968 0.126614 -0.095174
-0.028624 0.141046 -0.100116
-0.021528 0.038897 0.040131
-0.009459 0.049060 0.041438
-0.021569 0.013095 0.037840
-0.012913 0.026121 0.038434
-0.013181 0.089075 0.048127
-0.001772 0.099090 0.048210
-0.017178 0.063399 0.047749
-0.003812 0.073140 0.046759
0.087902 -0.056626 0.055462
0.089973 -0.046893 0.043563
0.084747 -0.084534 0.075394
0.084573 -0.070083 0.061966
0.076775 -0.008187 0.027077
0.080915 0.000174 0.015110
0.080063 -0.032716 0.043343
0.085287 -0.022840 0.030424
0.081796 0.158991 -0.073012
0.090852 0.169080 -0.086485
0.082451 0.144087 -0.076636
0.087028 0.155741 -0.084632
0.090425 0.210041 -0.096176
0.101849 0.219736 -0.096250
0.083882 0.185406 -0.092120
0.095563 0.195554 -0.097375
-0.083745 -0.071426 0.079207
-0.087837 -0.063480 0.068718
-0.079142 -0.100106 0.094529
-0.086027 -0.092255 0.080022
-0.081003 -0.019871 0.044650
-0.084873 -0.008134 0.034342
-0.085261 -0.048756 0.060500
-0.087644 -0.034494 0.048465
0.097070 -0.114910 0.020608
0.096536 -0.103193 0.007557
0.097238 -0.131394 0.046726
0.099317 -0.122951 0.035286
0.098941 -0.067839 -0.018879
0.102333 -0.055723 -0.024559
0.100423 -0.091640 -0.001735
0.102286 -0.080084 -0.011073
0.033735 0.231057 -0.120439
0.047211 0.242694 -0.120527
0.034706 0.213025 -0.119587
0.049127 0.225745 -0.122667
0.058660 0.254730 -0.117410
0.072621 0.264613 -0.113278
0.061309 0.239543 -0.118339
0.077795 0.246824 -0.114241
-0.098244 -0.093474 0.016455
-0.096011 -0.091288 -0.002344
-0.094165 -0.109433 0.028726
-0.090638 -0.106811 0.009825
-0.105184 -0.058520 -0.010906
-0.101448 -0.055350 -0.029664
-0.101733 -0.077808 0.003614
-0.098796 -0.073821 -0.014493
0.054035 -0.283355 0.003170
0.056706 -0.252176 0.031053
0.052097 -0.303796 -0.004736
0.056956 -0.266045 0.016741
0.036164 -0.203907 0.047591
0.034564 -0.192082 0.038179
0.037333 -0.233167 0.053882
0.039430 -0.220935 0.051178
0.016637 -0.116153 0.058779
0.018941 -0.104399 0.048394
0.017787 -0.136655 0.068022
0.022567 -0.128843 0.056857
-0.008321 -0.075119 0.023487
0.003054 -0.062879 0.017975
0.002089 -0.090184 0.032223
0.010000 -0.076862 0.025973
0.063452 -0.308230 0.069023
0.056007 -0.278924 0.093381
0.060492 -0.326749 0.059579
0.056032 -0.294572 0.083686
0.056113 -0.243798 0.123223
0.051187 -0.228439 0.129525
0.062235 -0.268862 0.099302
0.057231 -0.255302 0.112539
0.053980 -0.063272 0.064948
0.055482 -0.050413 0.053990
0.053898 -0.091047 0.079878
0.057406 -0.076347 0.072490
0.041448 -0.013009 0.039841
0.045702 -0.001016 0.029773
0.053226 -0.037075 0.050368
0.054701 -0.023596 0.037480
-0.048888 -0.316736 0.071428
-0.059711 -0.288586 0.096827
-0.052388 -0.332958 0.060397
-0.061545 -0.307604 0.082450
-0.046936 -0.270151 0.106116
-0.051230 -0.252672 0.124265
-0.047843 -0.292887 0.085309
-0.063331 -0.268432 0.111166
0.101056 -0.013164 -0.049201
0.096218 -0.001215 -0.056720
0.101577 -0.039359 -0.029538
0.101592 -0.027315 -0.040651
0.098072 0.015117 -0.058850
0.092742 0.027632 -0.065208
0.102614 -0.001302 -0.039049
0.099171 0.012000 -0.044789
-0.031742 -0.360693 0.016883
-0.031270 -0.333566 0.052256
-0.033105 -0.377432 0.006561
-0.029830 -0.350183 0.037588
-0.024053 -0.328178 0.036426
-0.021263 -0.297797 0.070040
-0.026622 -0.342184 0.021057
-0.026518 -0.315380 0.054546
-0.083524 -0.120313 0.098219
-0.088020 -0.118757 0.081681
-0.079428 -0.145028 0.109366
-0.087173 -0.134861 0.095770
-0.091535 -0.081686 0.067677
-0.097072 -0.079758 0.053880
-0.091391 -0.106039 0.083088
-0.094721 -0.100007 0.065928
0.086659 0.041139 -0.049563
0.089146 0.052958 -0.055992
0.090974 0.025866 -0.038288
0.097970 0.034535 -0.047624
0.082050 0.073603 -0.038573
0.089753 0.084235 -0.045922
0.082938 0.058217 -0.039707
0.084983 0.067831 -0.049450
-0.044276 0.334076 -0.027016
-0.033157 0.347672 -0.027325
-0.032460 0.318951 -0.010415
-0.026955 0.331357 -0.018884
-0.033200 0.391708 -0.008093
-0.035329 0.405803 -0.017101
-0.035215 0.376202 -0.016926
-0.033664 0.388102 -0.027933
0.070246 0.133899 -0.084037
0.074708 0.146685 -0.088711
0.072384 0.114502 -0.079673
0.078062 0.127010 -0.079186
0.068040 0.186423 -0.104094
0.079957 0.197471 -0.102096
0.075546 0.167799 -0.097129
0.079020 0.181918 -0.098927
0.047449 -0.280740 0.064542
0.037309 -0.258269 0.086502
0.045300 -0.301810 0.051384
0.041142 -0.270062 0.079574
0.026691 -0.210192 0.097703
0.029466 -0.197722 0.094319
0.034633 -0.226412 0.102963
0.036449 -0.212241 0.102745
-0.002874 -0.134167 0.030869
-0.000624 -0.125610 0.014549
0.007691 -0.156611 0.041030
0.011871 -0.143382 0.028607
-0.012485 -0.088097 -0.027291
0.001107 -0.080423 -0.039150
-0.007558 -0.106599 -0.013667
-0.000343 -0.090876 -0.022148
0.005080 -0.126284 0.046181
0.014874 -0.115133 0.037646
0.011766 -0.149097 0.056555
0.016103 -0.139279 0.043751
-0.010730 -0.079818 -0.003114
-0.002796 -0.070328 -0.017648
-0.003584 -0.085637 0.005819
0.003723 -0.073402 -0.004360
0.090373 0.219410 -0.038789
0.098111 0.228264 -0.049380
0.086251 0.200240 -0.042416
0.090981 0.211818 -0.052387
0.110979 0.247410 -0.032695
0.118706 0.259330 -0.041086
0.116264 0.221859 -0.031210
0.119787 0.233574 -0.044113
-0.065409 -0.010753 0.042465
-0.058424 0.002461 0.037484
-0.059827 -0.033291 0.063495
-0.057368 -0.018950 0.053903
-0.055769 0.045197 0.024243
-0.046357 0.057572 0.028140
-0.061641 0.017067 0.026816
-0.050747 0.028692 0.026306
0.005585 0.241627 -0.114079
0.020687 0.252104 -0.116657
0.007192 0.224888 -0.115873
0.021081 0.233485 -0.117800
0.008155 0.277875 -0.104093
0.023117 0.287099 -0.103097
0.006027 0.261157 -0.110143
0.021154 0.271108 -0.113025
0.006966 -0.101833 -0.011033
0.010740 -0.091736 -0.025484
0.008846 -0.119845 -0.000687
0.015135 -0.109352 -0.007328
-0.015758 -0.076836 -0.056718
-0.004239 -0.067616 -0.068289
-0.011389 -0.074688 -0.036395
0.002533 -0.069034 -0.052338
-0.145140 0.158144 -0.007932
-0.141342 0.168860 -0.027618
-0.137264 0.139411 -0.002950
-0.124922 0.152208 -0.016712
-0.144214 0.200671 -0.013635
-0.142985 0.214483 -0.032240
-0.139095 0.178331 -0.010269
-0.143459 0.194547 -0.027041
0.064611 -0.406698 -0.032399
0.078686 -0.350744 -0.003195
0.063402 -0.424109 -0.025404
0.071232 -0.382833 0.004302
0.081539 -0.334196 -0.007403
0.090215 -0.287205 0.019183
0.075048 -0.354254 -0.019547
0.088262 -0.306608 0.015946
0.048375 0.033189 -0.105140
0.054515 0.047326 -0.104034
0.047407 0.005207 -0.109462
0.054865 0.020382 -0.108898
0.028779 0.069359 -0.100227
0.036779 0.083089 -0.100274
0.031681 0.049117 -0.102928
0.043006 0.060492 -0.102613
-0.034556 -0.286147 0.059809
-0.035641 -0.261517 0.080184
-0.034544 -0.300657 0.031509
-0.042593 -0.266764 0.059343
-0.035236 -0.217417 0.105579
-0.036333 -0.206526 0.087954
-0.039140 -0.248196 0.091259
-0.037470 -0.233975 0.099381
0.122883 -0.021587 0.039941
0.123576 -0.019797 0.013086
0.144874 -0.041121 0.058608
0.148724 -0.038743 0.032153
0.112635 -0.003156 -0.003286
0.114073 0.003117 -0.020124
0.114482 -0.032120 0.017632
0.120079 -0.023244 -0.000786
-0.075604 0.217531 -0.098026
-0.063556 0.230347 -0.105184
-0.070046 0.198973 -0.101305
-0.060082 0.212183 -0.105681
-0.081162 0.250118 -0.095174
-0.069530 0.260637 -0.096085
-0.078816 0.233411 -0.097055
-0.067361 0.245277 -0.102467
-0.037381 -0.087385 -0.060223
-0.028078 -0.078754 -0.076788
-0.028384 -0.100533 -0.037163
-0.024535 -0.089024 -0.052442
-0.042081 -0.053911 -0.097674
-0.031058 -0.044329 -0.107205
-0.037485 -0.071056 -0.085065
-0.027999 -0.063547 -0.096726
-0.046396 -0.379619 0.014545
-0.045588 -0.348393 0.046038
-0.047157 -0.400730 0.002509
-0.046034 -0.362762 0.027401
-0.048170 -0.341648 0.014918
-0.047382 -0.297739 0.045118
-0.044572 -0.367272 -0.002119
-0.045592 -0.320115 0.026618
-0.025291 0.364122 -0.064323
-0.018642 0.376989 -0.076790
-0.024209 0.338549 -0.064329
-0.012405 0.352730 -0.075330
-0.030029 0.404722 -0.057442
-0.022924 0.419552 -0.065954
-0.030163 0.377540 -0.056190
-0.025716 0.389804 -0.064812
0.091169 -0.261608 0.060311
0.083012 -0.247899 0.073542
0.089309 -0.287112 0.033044
0.081629 -0.252837 0.055193
0.082156 -0.197622 0.107461
0.083448 -0.183925 0.099677
0.079096 -0.228184 0.118817
0.080039 -0.214537 0.115236
-0.094466 0.062525 -0.035831
-0.093397 0.072425 -0.047219
-0.098241 0.044619 -0.042372
-0.095376 0.054636 -0.055179
-0.093531 0.101535 -0.036274
-0.094734 0.111496 -0.049274
-0.092256 0.081732 -0.034598
-0.092364 0.091694 -0.048665
-0.067944 -0.088336 0.099346
-0.073255 -0.083068 0.085472
-0.062306 -0.119431 0.116952
-0.070192 -0.110065 0.105408
-0.073486 -0.044610 0.067052
-0.074688 -0.028751 0.056091
-0.068296 -0.071564 0.089344
-0.072992 -0.058272 0.075667
-0.043152 0.011499 0.034854
-0.033052 0.024139 0.034159
-0.042782 -0.012761 0.046338
-0.032528 -0.000988 0.042045
-0.035050 0.067965 0.038847
-0.024463 0.078727 0.042649
-0.039253 0.040556 0.032992
-0.029811 0.054081 0.036231
-0.023221 -0.175511 0.133692
-0.024523 -0.158214 0.126967
-0.025241 -0.204947 0.143323
-0.025300 -0.190693 0.141827
-0.021845 -0.113617 0.100714
-0.023365 -0.102988 0.087398
-0.024435 -0.139107 0.116807
-0.022826 -0.129550 0.101670
-0.080868 -0.465597 0.020000
-0.075808 -0.450429 0.008576
-0.081719 -0.474527 0.044757
-0.070579 -0.466264 0.034226
-0.054366 -0.391230 -0.020144
-0.056668 -0.326720 0.007356
-0.054948 -0.409742 -0.033044
-0.055467 -0.354746 -0.011893
-0.094662 -0.069851 -0.033224
-0.088521 -0.064731 -0.050453
-0.090742 -0.088019 -0.019368
-0.086134 -0.081472 -0.036985
-0.097602 -0.032516 -0.060595
-0.090674 -0.024622 -0.076351
-0.095516 -0.050601 -0.051817
-0.089705 -0.044033 -0.067876
-0.104678 0.240365 -0.080640
-0.094834 0.251603 -0.086376
-0.094886 0.220628 -0.086569
-0.091464 0.234759 -0.092480
-0.115265 0.269988 -0.066887
-0.100733 0.278603 -0.074223
-0.110226 0.254545 -0.072934
-0.099944 0.265426 -0.080321
-0.027837 -0.284523 0.079754
-0.033961 -0.259884 0.106178
-0.034111 -0.306004 0.067086
-0.036140 -0.277725 0.095128
-0.033091 -0.228139 0.137343
-0.035555 -0.219060 0.131704
-0.031151 -0.247545 0.114487
-0.039883 -0.239042 0.125355
0.019986 -0.161768 0.076218
0.024776 -0.153024 0.067001
0.024137 -0.183082 0.090131
0.027846 -0.172282 0.079828
-0.005018 -0.093171 0.020686
0.005710 -0.082034 0.013687
-0.000640 -0.110333 0.031627
0.011823 -0.102843 0.022907
0.048623 -0.464744 -0.013148
0.049305 -0.462895 -0.027734
0.064465 -0.474635 0.019833
0.054481 -0.468606 -0.000298
0.037614 -0.444188 -0.059346
0.040337 -0.392069 -0.033256
0.040326 -0.450686 -0.034508
0.038050 -0.416641 -0.017209
0.072373 -0.179867 0.046301
0.075507 -0.171054 0.033895
0.073224 -0.211011 0.058741
0.071968 -0.197384 0.053586
0.076251 -0.135457 0.001952
0.078763 -0.122655 -0.007811
0.076851 -0.157156 0.026924
0.080257 -0.145661 0.016347
-0.098184 0.008369 -0.065912
-0.088872 0.020198 -0.079706
-0.098743 -0.012424 -0.064831
-0.092240 -0.004345 -0.077855
-0.090437 0.047765 -0.065079
-0.083512 0.061500 -0.073268
-0.094849 0.028712 -0.067679
-0.086333 0.040914 -0.077630
-0.136948 -0.039761 0.171253
-0.145830 -0.037400 0.146605
-0.131735 -0.058569 0.182527
-0.134884 -0.057216 0.160509
-0.118082 -0.014466 0.141502
-0.122086 -0.013488 0.118838
-0.101830 -0.023319 0.155460
-0.102706 -0.016186 0.129262
0.098339 0.195942 -0.050139
0.107402 0.206411 -0.057178
0.089011 0.185382 -0.060727
0.099837 0.193435 -0.071001
0.119127 0.199100 -0.038603
0.121598 0.214528 -0.050478
0.120859 0.170343 -0.045568
0.119433 0.190815 -0.056306
-0.049887 0.236000 0.004436
-0.034548 0.245388 0.000643
-0.046744 0.215554 0.008078
-0.033950 0.227545 0.005511
-0.046393 0.296419 -0.020434
-0.032173 0.305944 -0.026627
-0.038802 0.276941 -0.012864
-0.030037 0.289699 -0.020600
-0.040939 -0.466875 0.007348
-0.031827 -0.454687 -0.010382
-0.048202 -0.477417 0.020609
-0.033643 -0.471686 0.008524
-0.033842 -0.433825 -0.047493
-0.039141 -0.382132 -0.029366
-0.032094 -0.433410 -0.022500
-0.035240 -0.409718 -0.013808
-0.161235 -0.059448 0.156959
-0.161787 -0.063163 0.128244
-0.148051 -0.069939 0.176170
-0.158274 -0.077401 0.149495
-0.155701 -0.035103 0.127550
-0.151849 -0.026277 0.105299
-0.135354 -0.046968 0.136827
-0.142266 -0.044027 0.119436
0.088333 -0.187854 0.085943
0.096868 -0.176871 0.078770
0.090252 -0.223705 0.090091
0.089246 -0.207278 0.093610
0.089519 -0.158996 0.041805
0.097780 -0.148109 0.033621
0.086462 -0.170512 0.063438
0.097045 -0.160140 0.053355
-0.015031 0.021944 -0.107861
-0.003857 0.036175 -0.106841
-0.016336 -0.002549 -0.114084
-0.006549 0.011382 -0.112709
-0.019954 0.065991 -0.097278
-0.011193 0.079815 -0.097051
-0.020063 0.038319 -0.102397
-0.010155 0.052296 -0.101099
-0.102361 0.169063 -0.027088
-0.097830 0.181009 -0.037671
-0.091484 0.153572 -0.024158
-0.094811 0.162123 -0.035124
-0.116230 0.210443 -0.030144
-0.110407 0.225426 -0.032936
-0.109899 0.185765 -0.030464
-0.104516 0.200852 -0.038381
0.035303 -0.316661 0.041540
0.032508 -0.280024 0.066499
0.033610 -0.333318 0.029415
0.034035 -0.299795 0.060333
0.031465 -0.243075 0.085598
0.028290 -0.226158 0.089253
0.027485 -0.255422 0.050818
0.029144 -0.243307 0.066894
0.109463 0.115309 -0.080331
0.117215 0.127811 -0.092383
0.124771 0.090759 -0.075493
0.130127 0.106431 -0.083374
0.127890 0.138599 -0.086592
0.128814 0.158290 -0.089676
0.147594 0.113704 -0.075269
0.143748 0.132659 -0.077449
0.006701 0.049129 -0.101934
0.016953 0.062327 -0.104118
0.005706 0.025102 -0.109258
0.016129 0.039531 -0.109199
-0.000267 0.092057 -0.097592
0.008626 0.105700 -0.098747
-0.000075 0.065680 -0.097959
0.009522 0.079756 -0.099057
0.035296 -0.397894 -0.018425
0.049908 -0.352674 0.010821
0.042252 -0.421397 -0.020604
0.047912 -0.374429 0.012566
0.035241 -0.346110 -0.022606
0.041088 -0.292161 -0.000590
0.041490 -0.375875 -0.033337
0.038999 -0.313034 -0.009133
0.088447 0.194170 -0.078544
0.100511 0.203459 -0.084175
0.083336 0.174814 -0.076483
0.095702 0.182387 -0.083120
0.082110 0.231141 -0.108775
0.089819 0.244036 -0.104027
0.078185 0.208119 -0.107400
0.088172 0.217283 -0.106879
0.061101 -0.072209 -0.076251
0.065880 -0.058823 -0.089321
0.066687 -0.085784 -0.053613
0.072292 -0.074250 -0.064614
0.052823 -0.024511 -0.107575
0.057757 -0.009913 -0.108279
0.054557 -0.050896 -0.097704
0.059716 -0.034570 -0.102336
-0.073711 -0.258447 0.085278
-0.075416 -0.242735 0.086255
-0.070328 -0.273929 0.059932
-0.072168 -0.260009 0.067773
-0.072377 -0.206350 0.081415
-0.068074 -0.198054 0.068582
-0.072415 -0.228333 0.078345
-0.064558 -0.217514 0.065165
0.098310 -0.035912 0.034526
0.100273 -0.029313 0.018401
0.102805 -0.058441 0.041905
0.106159 -0.047978 0.029830
0.087455 0.008386 0.003201
0.095594 0.014714 -0.007688
0.094410 -0.012294 0.020812
0.097379 -0.006345 0.005613
-0.085764 -0.267724 0.058746
-0.077148 -0.250642 0.055522
-0.073822 -0.298956 0.030924
-0.067426 -0.266170 0.043997
-0.078555 -0.232461 0.100601
-0.076623 -0.219127 0.091385
-0.081996 -0.246918 0.072400
-0.075553 -0.233327 0.064623
0.075836 -0.329747 0.024404
0.081154 -0.294657 0.051774
0.071575 -0.346876 0.015439
0.075501 -0.310803 0.043967
0.092015 -0.288280 0.043762
0.082601 -0.265223 0.070700
0.085443 -0.305440 0.031522
0.087063 -0.274168 0.054304
0.049760 0.308405 -0.094286
0.073674 0.306697 -0.088771
0.041911 0.293725 -0.107290
0.061262 0.298396 -0.101714
0.088781 0.314298 -0.075651
0.101748 0.308632 -0.064082
0.085650 0.300984 -0.083923
0.106212 0.296829 -0.075047
-0.041893 0.405293 0.000616
-0.043433 0.417480 -0.010084
-0.036605 0.372664 0.007871
-0.038684 0.391125 0.006326
-0.039016 0.448336 -0.010969
-0.032053 0.460999 -0.017120
-0.044713 0.435635 -0.019880
-0.042040 0.446207 -0.032860
0.111577 0.135904 -0.060487
0.119152 0.150610 -0.076324
0.122941 0.112962 -0.051782
0.129720 0.124047 -0.070432
0.135526 0.158134 -0.075002
0.139004 0.174969 -0.070977
0.149834 0.128782 -0.063158
0.144838 0.149068 -0.063377
-0.103714 0.299415 -0.053479
-0.091470 0.307061 -0.058545
-0.111315 0.284831 -0.060458
-0.094064 0.293393 -0.068206
-0.072548 0.317943 -0.039052
-0.054391 0.324105 -0.040839
-0.082217 0.312993 -0.048853
-0.063034 0.316322 -0.053506
-0.000920 0.148012 -0.103381
0.007641 0.161484 -0.104969
0.003314 0.122994 -0.099620
0.011481 0.136799 -0.101209
-0.000232 0.199447 -0.110601
0.012477 0.209556 -0.113833
0.002060 0.179730 -0.108164
0.013853 0.191979 -0.110552
0.034257 0.355261 -0.008980
0.037963 0.369030 -0.019914
0.033077 0.342752 -0.023805
0.030196 0.364158 -0.033123
0.031799 0.416493 -0.013551
0.038464 0.421543 -0.031600
0.039279 0.392899 -0.012866
0.043595 0.402590 -0.029290
0.062594 -0.375056 0.018523
0.076834 -0.344213 0.043529
0.066656 -0.397132 0.005996
0.075263 -0.362081 0.033257
0.084741 -0.345190 0.027928
0.087328 -0.309120 0.059974
0.073568 -0.359786 0.008497
0.090089 -0.325284 0.046058
0.070587 -0.403837 -0.011163
0.085928 -0.361881 0.016473
0.061877 -0.422626 -0.004173
0.077043 -0.377007 0.018156
0.078447 -0.371508 -0.003209
0.090034 -0.321755 0.022859
0.074902 -0.385145 -0.016680
0.086724 -0.339672 0.012071
-0.022543 0.212116 0.029486
-0.012789 0.224228 0.022153
-0.019458 0.194482 0.027753
-0.010132 0.205549 0.025374
-0.027724 0.251392 0.014334
-0.015931 0.261785 0.009591
-0.025814 0.230822 0.023598
-0.016637 0.244054 0.015946
-0.078117 -0.183311 0.098695
-0.082364 -0.174000 0.079243
-0.078692 -0.205462 0.101398
-0.080863 -0.196357 0.091684
-0.088903 -0.144756 0.083811
-0.089453 -0.141343 0.065645
-0.080555 -0.163542 0.089679
-0.085668 -0.156552 0.073728
-0.004708 0.282812 0.008036
0.003177 0.296179 0.008844
-0.001769 0.266866 0.009172
0.010192 0.278487 0.006214
-0.008817 0.336580 0.007363
0.001045 0.349484 0.010671
-0.000444 0.313378 0.010608
0.006425 0.329181 0.008109
0.077587 -0.198986 0.066473
0.079847 -0.185528 0.058992
0.086603 -0.224354 0.078878
0.081089 -0.209824 0.075463
0.085217 -0.140676 0.035801
0.088719 -0.129338 0.027907
0.083104 -0.157692 0.057773
0.088802 -0.144891 0.052938
-0.007553 0.414968 0.043175
0.004148 0.426156 0.036506
-0.000967 0.390618 0.045885
0.011313 0.404113 0.040048
-0.004144 0.476171 0.003403
0.008038 0.478314 -0.009227
-0.000266 0.459025 0.020479
0.011956 0.466108 0.008407
-0.044861 -0.332689 -0.007770
-0.043946 -0.278048 0.024069
-0.049069 -0.369129 -0.021479
-0.045355 -0.301801 0.009677
-0.034671 -0.205188 0.071485
-0.033219 -0.194771 0.054077
-0.036051 -0.238778 0.054379
-0.036091 -0.224450 0.065622
0.043198 -0.232002 0.116294
0.037654 -0.216099 0.118236
0.045096 -0.252416 0.094141
0.039528 -0.240569 0.100559
0.031488 -0.157761 0.083387
0.032258 -0.143372 0.071853
0.031384 -0.186774 0.106331
0.030756 -0.172170 0.095857
-0.090108 0.168553 -0.065875
-0.092201 0.178066 -0.076345
-0.086312 0.152336 -0.063957
-0.088290 0.162099 -0.076864
-0.106383 0.212406 -0.072442
-0.101123 0.226889 -0.078370
-0.098203 0.193335 -0.073600
-0.092932 0.206729 -0.082063
-0.085683 0.023740 0.009031
-0.082183 0.038145 0.005188
-0.078190 0.004180 0.028057
-0.078188 0.014667 0.020474
-0.073895 0.084227 0.009885
-0.073565 0.100236 0.008108
-0.078103 0.054957 0.005250
-0.074159 0.069583 0.005319
0.103988 0.221029 -0.057135
0.111883 0.232129 -0.064900
0.096369 0.208539 -0.065715
0.106869 0.216787 -0.074688
0.117444 0.284768 -0.065439
0.118712 0.287121 -0.051335
0.129223 0.254740 -0.063774
0.126674 0.263417 -0.050071
0.067628 -0.232320 0.129201
0.067914 -0.215225 0.133723
0.071980 -0.257996 0.103901
0.070530 -0.242413 0.114478
0.064529 -0.164630 0.116941
0.065648 -0.150020 0.110194
0.063596 -0.194897 0.131062
0.065498 -0.179703 0.124383
0.026243 0.221276 0.022047
0.034573 0.231903 0.015695
0.028577 0.201536 0.026920
0.040168 0.210665 0.021185
0.016838 0.263987 0.009121
0.026653 0.274841 0.005501
0.022098 0.242295 0.015772
0.030577 0.254058 0.009695
0.043750 -0.246586 0.065015
0.041812 -0.229676 0.072863
0.043487 -0.272678 0.029836
0.043249 -0.250058 0.045718
0.030034 -0.160967 0.033962
0.031552 -0.147401 0.022455
0.031478 -0.188357 0.054703
0.032781 -0.174986 0.044332
-0.076583 -0.284428 0.085480
-0.083195 -0.269123 0.084503
-0.081080 -0.308571 0.063522
-0.084125 -0.283865 0.071936
-0.070155 -0.245815 0.120006
-0.078733 -0.233831 0.117311
-0.075425 -0.265602 0.100338
-0.079269 -0.249511 0.102981
-0.142503 -0.014993 0.139813
-0.142175 -0.015191 0.116065
-0.119685 -0.039999 0.152010
-0.123883 -0.032281 0.126924
-0.147619 0.006289 0.115264
-0.145468 0.000172 0.092222
-0.116167 0.003723 0.124223
-0.120257 -0.001681 0.098603
-0.072930 -0.090751 -0.042049
-0.066180 -0.081978 -0.059389
-0.067354 -0.107919 -0.024112
-0.060066 -0.098714 -0.038889
-0.081968 -0.054737 -0.073449
-0.073940 -0.047692 -0.087044
-0.079523 -0.073223 -0.059244
-0.071054 -0.066865 -0.073888
0.091576 0.233549 -0.007903
0.101894 0.241214 -0.021175
0.091747 0.209474 -0.009619
0.088080 0.225112 -0.022676
0.083614 0.279526 -0.017887
0.096994 0.283488 -0.025514
0.093087 0.256951 -0.012618
0.101789 0.265012 -0.025246
-0.027485 0.438358 -0.075475
-0.017091 0.449030 -0.083040
-0.031837 0.417554 -0.077142
-0.019518 0.428555 -0.083582
-0.018364 0.476879 -0.051743
-0.002447 0.480790 -0.050203
-0.021236 0.459229 -0.061457
-0.013711 0.468828 -0.071404
0.096803 -0.036308 -0.052805
0.096076 -0.022798 -0.056241
0.097851 -0.055838 -0.037351
0.099760 -0.043371 -0.042532
0.086180 -0.002792 -0.083668
0.092539 0.010545 -0.077268
0.091223 -0.020310 -0.071034
0.092822 -0.004664 -0.069832
-0.136461 0.253654 -0.010142
-0.132047 0.262909 -0.019729
-0.138869 0.228456 -0.013419
-0.131097 0.240457 -0.022488
-0.106023 0.307145 -0.023155
-0.090992 0.313749 -0.033407
-0.111623 0.303057 -0.007789
-0.091066 0.306836 -0.017165
0.137791 0.044252 -0.011988
0.134604 0.052873 -0.034560
0.147679 0.019536 0.008027
0.147241 0.033309 -0.016285
0.150782 0.078960 -0.024692
0.158520 0.091268 -0.042690
0.157540 0.053321 -0.010515
0.165593 0.059886 -0.031086
0.116679 0.174868 -0.061494
0.117468 0.189380 -0.074184
0.111797 0.158033 -0.063659
0.117447 0.169390 -0.077435
0.132149 0.179336 -0.045185
0.133672 0.195544 -0.051476
0.127296 0.150264 -0.048079
0.136531 0.164251 -0.057934
0.069388 -0.041681 -0.093091
0.075771 -0.026447 -0.093232
0.075033 -0.062283 -0.076641
0.078782 -0.046940 -0.080696
0.063496 0.006320 -0.102410
0.074442 0.021188 -0.098013
0.068236 -0.014800 -0.098081
0.076127 -0.000138 -0.097840
0.085960 -0.234123 0.069281
0.087252 -0.219724 0.067878
0.092566 -0.250352 0.044422
0.087378 -0.238859 0.057889
0.088458 -0.181028 0.071808
0.097044 -0.172458 0.058467
0.091313 -0.203319 0.082130
0.090153 -0.194158 0.070875
0.055310 -0.212986 0.055431
0.056850 -0.202608 0.045064
0.061032 -0.244788 0.045027
0.061609 -0.228966 0.055246
0.048402 -0.162572 0.011016
0.047531 -0.147656 -0.003058
0.045551 -0.187188 0.039397
0.045947 -0.177574 0.025273
0.084352 -0.234560 0.096516
0.087285 -0.217606 0.104491
0.092392 -0.256653 0.078870
0.090505 -0.243878 0.085965
0.126224 -0.041773 0.071896
0.127061 -0.039278 0.046578
0.149416 -0.060521 0.086774
0.159778 -0.058176 0.062483
-0.094503 -0.113901 0.064116
-0.095100 -0.111160 0.045831
-0.091843 -0.130237 0.074173
-0.091525 -0.126976 0.054410
-0.101470 -0.076695 0.038483
-0.102336 -0.076594 0.019611
-0.095544 -0.096452 0.051632
-0.097776 -0.093745 0.032948
-0.057139 0.136131 -0.092080
-0.050284 0.147729 -0.099199
-0.051890 0.111257 -0.091541
-0.045156 0.125682 -0.097420
-0.064599 0.183156 -0.096628
-0.055868 0.193026 -0.104088
-0.060065 0.162547 -0.094465
-0.051160 0.173170 -0.102012
0.030134 0.332391 -0.049976
0.030885 0.348600 -0.048918
0.029335 0.314117 -0.055478
0.035613 0.326884 -0.063545
0.020027 0.383326 -0.070554
0.023899 0.393315 -0.077352
0.029382 0.358823 -0.064357
0.026240 0.371310 -0.074139
0.082928 0.091314 -0.013692
0.082408 0.106029 -0.019906
0.084465 0.070175 -0.020518
0.084141 0.082986 -0.027905
0.088302 0.140116 -0.035155
0.095815 0.150596 -0.041645
0.085774 0.122074 -0.037320
0.092900 0.133581 -0.046713
-0.052683 0.210992 0.022887
-0.038002 0.220050 0.020044
-0.041037 0.194952 0.023504
-0.036649 0.206704 0.023209
-0.050420 0.276472 0.004968
-0.035198 0.285527 -0.000298
-0.049516 0.260527 0.003435
-0.031654 0.266633 0.003005
-0.002440 -0.079406 0.037547
0.006718 -0.065701 0.035469
0.002798 -0.100605 0.045891
0.015411 -0.086946 0.041438
-0.006163 -0.044180 0.050382
0.004361 -0.032776 0.045910
-0.012241 -0.068162 0.045621
0.001109 -0.055503 0.040933
0.036387 -0.360503 0.007529
0.047609 -0.327552 0.040166
0.037132 -0.382015 -0.005393
0.048816 -0.348015 0.027277
0.034244 -0.328074 -0.002896
0.040818 -0.280834 0.014664
0.036897 -0.355375 -0.009752
0.041851 -0.304398 0.009967
-0.031127 0.120092 0.038288
-0.023807 0.132963 0.039701
-0.032965 0.091458 0.039742
-0.023794 0.103762 0.042966
-0.032517 0.169847 0.030978
-0.025568 0.182881 0.029913
-0.030311 0.148417 0.036283
-0.022134 0.161877 0.034670
-0.107286 -0.019716 -0.038574
-0.104613 -0.013310 -0.052268
-0.106465 -0.037009 -0.026257
-0.102467 -0.034867 -0.044690
-0.102155 0.027284 -0.037905
-0.100375 0.035573 -0.053469
-0.104896 0.006729 -0.045175
-0.103045 0.016907 -0.055540
-0.161868 0.058779 0.047874
-0.151182 0.062381 0.027756
-0.120088 0.052269 0.050193
-0.125264 0.056213 0.035949
-0.164134 0.082263 0.029526
-0.153701 0.086106 0.009776
-0.124954 0.082069 0.031716
-0.124187 0.083189 0.015612
0.103198 -0.091555 0.041753
0.104879 -0.079665 0.029535
0.099419 -0.122216 0.056060
0.100425 -0.109379 0.043742
0.106420 -0.040000 0.005831
0.108972 -0.031119 -0.002337
0.107484 -0.064730 0.024185
0.110415 -0.053771 0.013860
0.046999 -0.092552 -0.056210
0.054110 -0.083258 -0.067509
0.051735 -0.112593 -0.031763
0.056323 -0.100541 -0.044337
0.036267 -0.060864 -0.094014
0.044581 -0.051986 -0.105796
0.041954 -0.077666 -0.079803
0.051059 -0.067913 -0.089013
0.086023 0.106347 -0.045140
0.088457 0.120422 -0.053742
0.081246 0.091695 -0.051031
0.084311 0.104372 -0.057550
0.092050 0.162105 -0.048699
0.101376 0.170186 -0.060570
0.091157 0.147078 -0.051996
0.098392 0.158033 -0.063450
0.039742 0.321343 -0.033984
0.039100 0.336153 -0.038952
0.041347 0.305219 -0.032992
0.049989 0.310040 -0.049507
0.038650 0.374704 -0.034397
0.031104 0.383143 -0.050908
0.040507 0.351034 -0.034115
0.039172 0.364495 -0.050427
-0.027098 0.301598 0.000154
-0.015931 0.314656 0.000250
-0.021065 0.278429 0.004782
-0.014730 0.293715 0.002566
-0.031914 0.360770 -0.015845
-0.024408 0.371622 -0.020015
-0.025387 0.337432 -0.003362
-0.023097 0.350361 -0.009234
0.046757 -0.425876 0.008032
0.061988 -0.393261 0.022495
0.059121 -0.435912 0.022363
0.057300 -0.415481 0.016374
0.040668 -0.423562 -0.040968
0.048501 -0.368951 -0.005617
0.036897 -0.434864 -0.030222
0.048417 -0.390664 0.000652
-0.024350 0.392980 0.028747
-0.017381 0.407039 0.033959
-0.020973 0.367635 0.036556
-0.008972 0.381940 0.036979
-0.025044 0.451325 0.010830
-0.012688 0.461483 0.009603
-0.023575 0.429949 0.027405
-0.013426 0.444402 0.023755
-0.049364 -0.470058 0.043848
-0.037894 -0.460000 0.029044
-0.057040 -0.482575 0.053717
-0.042756 -0.480800 0.032923
-0.034979 -0.404606 -0.042737
-0.040948 -0.349083 -0.014833
-0.027029 -0.422166 -0.043462
-0.032732 -0.365987 -0.019532
0.010755 -0.045088 -0.106860
0.018937 -0.031973 -0.112305
0.013221 -0.061464 -0.092809
0.024252 -0.055700 -0.104934
0.001459 -0.002800 -0.113506
0.011936 0.010261 -0.114025
0.003420 -0.025716 -0.114165
0.012889 -0.012251 -0.116648
0.077535 0.062574 -0.004997
0.075886 0.076361 -0.012460
0.079396 0.044306 -0.010694
0.081499 0.055558 -0.023185
0.069937 0.109117 0.008658
0.071956 0.123685 -0.001349
0.074521 0.087912 0.000676
0.075854 0.102768 -0.005571
0.035383 0.278741 -0.113013
0.055974 0.284687 -0.109054
0.035155 0.259072 -0.116964
0.051026 0.269493 -0.115108
0.076608 0.291763 -0.099554
0.096879 0.296799 -0.089367
0.072091 0.276748 -0.106891
0.090284 0.278387 -0.101586
0.088440 -0.105408 -0.007740
0.092006 -0.092858 -0.017479
0.087162 -0.130684 0.012850
0.090662 -0.117255 0.004471
0.089552 -0.062815 -0.050208
0.092443 -0.050537 -0.055461
0.091554 -0.081418 -0.028860
0.093565 -0.069849 -0.036622
-0.061527 -0.351793 0.050784
-0.072264 -0.322422 0.075492
-0.060624 -0.371264 0.032870
-0.067186 -0.339444 0.066111
-0.078296 -0.330931 0.051016
-0.083029 -0.297882 0.072379
-0.077412 -0.338855 0.032607
-0.078460 -0.299066 0.049231
0.044797 0.243884 0.011804
0.054911 0.253422 0.002276
0.050943 0.224125 0.017540
0.059436 0.236266 0.008410
0.034391 0.286055 -0.004074
0.045163 0.292455 -0.010456
0.040267 0.264706 0.004045
0.049400 0.274515 -0.004710
-0.106676 -0.045187 0.007066
-0.107877 -0.041328 -0.012179
-0.105575 -0.061042 0.022634
-0.104339 -0.061417 0.005670
-0.107956 0.004793 -0.016634
-0.107030 0.012819 -0.030097
-0.109345 -0.018205 -0.018266
-0.108800 -0.007742 -0.030861
-0.046013 0.204386 -0.107821
-0.034985 0.214640 -0.109591
-0.041512 0.185467 -0.104926
-0.030820 0.196856 -0.107530
-0.052004 0.243321 -0.103957
-0.038927 0.253189 -0.105327
-0.047624 0.223963 -0.106302
-0.037555 0.236682 -0.106840
-0.010490 0.133120 0.041144
-0.001057 0.144843 0.037835
-0.012610 0.111868 0.045203
-0.001173 0.123159 0.043203
-0.011629 0.175961 0.031377
-0.002341 0.189358 0.029142
-0.009170 0.156127 0.033840
0.000902 0.168020 0.030971
-0.148049 0.044979 0.082665
-0.156428 0.054738 0.062677
-0.126744 0.033704 0.094728
-0.120024 0.042674 0.070927
-0.151898 0.081956 0.063653
-0.160335 0.085953 0.045992
-0.130381 0.066426 0.070311
-0.124349 0.073218 0.050158
0.068764 -0.478114 0.045147
