ply
format ascii 1.0
element vertex 1680
property float x
property float y
property float z
end_header
0.019159 0.297323 -0.105602
0.040290 0.314988 -0.076631
0.061134 0.307019 -0.076041
0.032443 0.308291 -0.093307
0.052606 0.308624 -0.091352
-0.091401 -0.478964 0.054093
-0.080645 -0.465570 0.046557
-0.084220 -0.480858 0.072738
-0.077149 -0.475112 0.060465
-0.068044 -0.402480 -0.006812
-0.067707 -0.358268 0.013762
-0.060964 -0.418991 -0.008544
-0.061135 -0.389239 0.003289
0.007960 0.302790 0.002582
0.015241 0.317169 0.001301
0.006497 0.283188 -0.000632
0.019068 0.292939 -0.000499
0.008647 0.360526 0.024710
0.019480 0.371598 0.019953
0.011935 0.336108 0.003038
0.014351 0.353557 0.003234
0.023586 -0.286838 0.014913
0.033197 -0.264143 0.049371
0.019916 -0.303730 0.004655
0.026236 -0.274251 0.034704
0.014673 -0.201867 0.046435
0.015631 -0.192051 0.034230
0.017748 -0.227415 0.051068
0.021460 -0.217217 0.041266
0.083490 0.010102 -0.023430
0.089569 0.019502 -0.031643
0.088514 -0.000281 -0.008797
0.095815 0.005724 -0.021755
0.070114 0.036775 -0.023685
0.076974 0.046668 -0.032789
0.075021 0.022518 -0.014591
0.081952 0.031183 -0.027097
0.103083 0.249272 -0.106699
0.115004 0.253927 -0.099731
0.116465 0.224600 -0.112399
0.127451 0.235663 -0.107699
0.137976 0.197923 -0.107206
0.150394 0.208520 -0.099454
0.157193 0.171394 -0.102805
0.163492 0.189391 -0.099642
0.023814 -0.323162 0.001627
0.027897 -0.289635 0.029721
0.024467 -0.342758 -0.007346
0.026256 -0.307438 0.017434
0.016514 -0.266333 0.008659
0.025205 -0.251688 0.022922
0.018523 -0.301610 -0.009987
0.031387 -0.271466 0.006455
-0.036080 -0.326633 -0.004223
-0.029008 -0.280456 0.023899
-0.026573 -0.351474 -0.009472
-0.026739 -0.300728 0.016026
-0.024579 -0.247801 0.059911
-0.012629 -0.235124 0.066308
-0.016174 -0.283263 0.034782
-0.014052 -0.261020 0.056034
0.062746 0.027904 -0.080808
0.067767 0.043593 -0.077798
0.068207 0.007916 -0.085113
0.075999 0.023890 -0.079391
0.052336 0.073707 -0.084821
0.060606 0.085795 -0.079971
0.058606 0.054062 -0.083076
0.064883 0.066889 -0.077448
-0.053302 0.082030 0.035682
-0.045924 0.097918 0.038449
-0.057771 0.056135 0.035248
-0.048530 0.067888 0.038797
-0.059857 0.133409 0.029388
-0.048513 0.143545 0.033489
-0.053895 0.110584 0.032738
-0.046360 0.124416 0.035018
-0.024253 -0.168804 0.044667
-0.022538 -0.157134 0.032624
-0.024529 -0.195953 0.061520
-0.023042 -0.182371 0.051319
-0.019490 -0.101065 -0.005315
-0.017486 -0.088892 -0.014632
-0.020881 -0.123561 0.016380
-0.017168 -0.112866 0.008392
-0.004388 0.326462 -0.070853
0.003333 0.338666 -0.078297
-0.002709 0.311748 -0.077374
0.012843 0.318245 -0.078508
-0.005494 0.376425 -0.072497
0.001096 0.387600 -0.083649
-0.007012 0.350876 -0.075212
0.000185 0.363788 -0.079421
0.077612 0.283661 -0.045869
0.097395 0.280910 -0.052689
0.098510 0.264210 -0.044033
0.109881 0.266145 -0.053933
0.061931 0.302550 -0.058719
0.080431 0.302996 -0.067801
0.085426 0.295560 -0.056409
0.103801 0.287877 -0.064583
-0.020118 -0.182683 0.082311
-0.016586 -0.177182 0.066494
-0.019697 -0.223291 0.081370
-0.024497 -0.203643 0.075658
-0.017322 -0.137545 0.041828
-0.018988 -0.131400 0.028219
-0.014161 -0.161042 0.060323
-0.015967 -0.150910 0.048763
-0.054313 -0.171518 0.034923
-0.048549 -0.163956 0.021851
-0.054391 -0.188156 0.050587
-0.043590 -0.181494 0.035466
-0.063825 -0.132503 -0.002287
-0.059405 -0.123376 -0.014166
-0.058940 -0.151433 0.013578
-0.053560 -0.142240 0.001229
0.079674 -0.315111 0.022221
0.077424 -0.284659 0.052936
0.074805 -0.327555 0.012415
0.080314 -0.296637 0.043925
0.077041 -0.269991 0.071647
0.077795 -0.256217 0.078281
0.087159 -0.292067 0.031296
0.080396 -0.268460 0.061262
0.069174 -0.194554 0.097187
0.073378 -0.178276 0.092811
0.071380 -0.224125 0.105508
0.070894 -0.207870 0.106486
0.070834 -0.119346 0.079751
0.071455 -0.102957 0.071478
0.069324 -0.151750 0.093412
0.068230 -0.136624 0.083659
0.223442 0.100564 -0.071684
0.229793 0.117464 -0.081402
0.245968 0.086902 -0.060011
0.248082 0.102752 -0.076148
0.244821 0.120888 -0.072878
0.240856 0.142973 -0.071359
0.263189 0.094557 -0.060597
0.263186 0.120274 -0.066242
-0.078382 -0.361800 0.023030
-0.082655 -0.323354 0.042154
-0.074037 -0.383452 0.001367
-0.080029 -0.337055 0.031451
-0.074542 -0.312510 0.041290
-0.080359 -0.281173 0.058972
-0.075439 -0.328597 0.024779
-0.076336 -0.289132 0.037824
-0.113035 0.175300 0.000795
-0.109698 0.188249 -0.008731
-0.105946 0.154439 0.001421
-0.100156 0.169853 -0.006425
-0.119042 0.212489 0.006283
-0.108216 0.227894 0.004767
-0.110246 0.192535 0.004129
-0.105716 0.206311 -0.001189
-0.100997 0.186055 0.022155
-0.095221 0.200107 0.020109
-0.099854 0.157169 0.024711
-0.090286 0.174975 0.024265
-0.100551 0.234500 0.034391
-0.086445 0.244501 0.024363
-0.097587 0.212613 0.035316
-0.086143 0.227059 0.032262
0.031657 0.428356 -0.015913
0.027895 0.431803 -0.035419
0.029567 0.400130 -0.009804
0.033042 0.402792 -0.030959
0.002816 0.457216 -0.034882
0.013379 0.451954 -0.047393
0.012315 0.453480 -0.006100
0.016969 0.447978 -0.024674
-0.068077 -0.078690 -0.066061
-0.060119 -0.069777 -0.079505
-0.061114 -0.094338 -0.048695
-0.054851 -0.085347 -0.063198
-0.073201 -0.038550 -0.086599
-0.062834 -0.027125 -0.096353
-0.071683 -0.058402 -0.080998
-0.062848 -0.047310 -0.092450
0.060255 0.175956 0.005058
0.068332 0.186524 -0.007031
0.059804 0.156571 0.005558
0.065861 0.167581 -0.006032
0.058205 0.214602 0.005758
0.067881 0.221538 -0.005725
0.060129 0.193187 0.004937
0.065727 0.203945 -0.005173
0.024664 0.395934 -0.053085
0.019107 0.411565 -0.063048
0.031284 0.378095 -0.048333
0.019229 0.392029 -0.065588
0.011921 0.439118 -0.066283
0.021187 0.437920 -0.062777
0.029197 0.420245 -0.032821
0.025110 0.427803 -0.054088
-0.018179 0.418189 -0.089337
-0.006117 0.428327 -0.090456
-0.011821 0.393774 -0.081097
-0.006864 0.408297 -0.088420
-0.007199 0.464070 -0.071014
0.006272 0.456465 -0.060089
-0.013859 0.446403 -0.085391
0.004576 0.449811 -0.076552
0.079427 -0.149337 0.080636
0.082371 -0.137679 0.069361
0.076761 -0.170040 0.083246
0.083425 -0.159829 0.076545
0.086995 -0.087068 0.053640
0.087551 -0.072793 0.041971
0.083507 -0.118906 0.069270
0.085344 -0.101211 0.060425
-0.038353 -0.141857 0.008567
-0.031380 -0.130957 -0.001451
-0.037287 -0.161952 0.030105
-0.030388 -0.149062 0.018035
-0.053652 -0.112108 -0.027774
-0.047693 -0.101765 -0.040173
-0.042928 -0.128953 -0.011084
-0.036502 -0.116117 -0.020795
0.006578 0.111686 -0.100637
0.015922 0.126748 -0.104342
0.009343 0.082880 -0.097870
0.016863 0.096966 -0.099837
0.003350 0.162654 -0.111952
0.010926 0.177893 -0.117146
0.006729 0.141854 -0.107888
0.017747 0.153604 -0.111518
-0.010209 0.005854 0.042958
0.001747 0.016472 0.040544
-0.009612 -0.021224 0.049934
-0.000382 -0.007511 0.045802
-0.002111 0.049590 0.050251
0.008620 0.059440 0.046619
-0.005658 0.029748 0.046414
0.006466 0.038084 0.043756
-0.027908 -0.071015 0.074570
-0.022937 -0.061185 0.060164
-0.021221 -0.094618 0.079227
-0.017635 -0.083652 0.067996
-0.029567 -0.022102 0.051228
-0.020148 -0.007724 0.046300
-0.028368 -0.044520 0.060081
-0.017481 -0.033359 0.051522
-0.007947 0.352612 0.035792
0.004665 0.367831 0.035995
-0.007300 0.334110 0.024951
0.007858 0.344461 0.023152
-0.014377 0.408516 0.011706
-0.000633 0.419717 0.003740
-0.007842 0.387839 0.018184
0.005230 0.398020 0.011405
-0.020321 -0.310553 0.042269
-0.020429 -0.275569 0.070637
-0.022368 -0.317708 0.023124
-0.020088 -0.290012 0.049396
-0.017806 -0.240260 0.091934
-0.013869 -0.223003 0.098361
-0.012836 -0.272342 0.056235
-0.013567 -0.254463 0.080012
-0.069414 0.269088 -0.080606
-0.051084 0.275618 -0.084541
-0.068006 0.249437 -0.087866
-0.055083 0.259504 -0.091376
-0.053293 0.298378 -0.067211
-0.037103 0.303976 -0.073692
-0.058606 0.287204 -0.074251
-0.039606 0.290593 -0.080946
-0.098918 0.055564 -0.004877
-0.096018 0.068626 -0.013843
-0.096618 0.036644 0.004184
-0.093545 0.046122 -0.008139
-0.095864 0.113846 -0.007931
-0.095689 0.125995 -0.014540
-0.096828 0.085690 -0.012275
-0.093060 0.100650 -0.014783
0.299137 0.066335 0.034329
0.311542 0.075413 0.013915
0.337989 0.045603 0.016844
0.349093 0.053463 -0.004709
0.322077 0.079256 0.036696
0.330378 0.096652 0.016516
0.365921 0.057692 0.016211
0.367081 0.068702 -0.006488
-0.060540 -0.454722 -0.041799
-0.043414 -0.444380 -0.047234
-0.053116 -0.466771 -0.026124
-0.044756 -0.460077 -0.043566
-0.059603 -0.431965 -0.052911
-0.049954 -0.386301 -0.035947
-0.053157 -0.452194 -0.056442
-0.044972 -0.420380 -0.050862
0.083428 0.252829 -0.113877
0.092321 0.259023 -0.109450
0.092695 0.230377 -0.106705
0.104230 0.238512 -0.102783
0.111484 0.194657 -0.100843
0.122036 0.205769 -0.110307
0.133555 0.173444 -0.095495
0.146554 0.180961 -0.103598
-0.132213 0.189722 -0.028783
-0.123274 0.203894 -0.036134
-0.125040 0.171638 -0.028450
-0.118380 0.187900 -0.038954
-0.135368 0.219786 -0.035028
-0.129794 0.234648 -0.042423
-0.129502 0.207029 -0.041941
-0.124101 0.220096 -0.050596
0.041444 0.012269 0.020998
0.048885 0.023313 0.012809
0.048637 -0.009310 0.027160
0.053518 0.004458 0.017784
0.039909 0.045404 0.031955
0.048237 0.057593 0.024184
0.038385 0.028169 0.025262
0.047235 0.040496 0.016099
-0.029862 0.386794 -0.072002
-0.025608 0.399659 -0.084033
-0.022116 0.361631 -0.066978
-0.019893 0.375591 -0.077875
-0.020943 0.438798 -0.075893
-0.006529 0.446963 -0.072711
-0.019382 0.418449 -0.075142
-0.007183 0.430253 -0.079693
0.030955 -0.441734 -0.063185
0.041961 -0.392139 -0.035810
0.041999 -0.446006 -0.023977
0.040297 -0.416831 -0.012466
0.033008 -0.401979 -0.061413
0.035273 -0.341455 -0.030272
0.036100 -0.422621 -0.063308
0.040713 -0.372461 -0.036338
0.015118 0.023675 0.042100
0.026957 0.034174 0.035751
0.013894 0.004050 0.038968
0.026063 0.013574 0.033186
0.020415 0.065683 0.048493
0.029889 0.077383 0.041425
0.020187 0.044733 0.047155
0.031605 0.055232 0.041039
-0.070880 0.052279 0.026761
-0.066591 0.066626 0.026100
-0.075887 0.022605 0.026436
-0.072751 0.038810 0.020969
-0.067901 0.106615 0.024054
-0.065615 0.121290 0.024907
-0.069644 0.081735 0.027364
-0.061698 0.095438 0.029741
0.021387 -0.141631 -0.012234
0.019156 -0.129875 -0.024655
0.025699 -0.166781 0.006284
0.027560 -0.153467 -0.008433
0.001815 -0.092427 -0.047009
0.008070 -0.084536 -0.061145
0.005511 -0.113530 -0.029657
0.010570 -0.102391 -0.045646
-0.049408 0.409892 0.005310
-0.044772 0.422420 -0.004923
-0.042766 0.384606 0.015806
-0.041276 0.398522 0.011858
-0.035339 0.457343 -0.031844
-0.017238 0.464911 -0.032791
-0.037891 0.450342 -0.007640
-0.023162 0.456676 -0.015412
0.294332 0.059811 -0.008493
0.299793 0.074463 -0.030741
0.325375 0.048082 -0.008051
0.332900 0.055609 -0.026214
0.291128 0.087606 -0.009899
0.299708 0.105103 -0.022927
0.323586 0.067071 -0.005239
0.328131 0.076169 -0.023318
-0.073905 -0.148566 0.023700
-0.071683 -0.140521 0.010857
-0.066888 -0.171305 0.044191
-0.065019 -0.160440 0.028723
-0.087883 -0.107543 -0.004200
-0.084411 -0.098806 -0.020678
-0.082192 -0.128047 0.009345
-0.076701 -0.120723 -0.004584
0.022366 0.117763 0.037904
0.028729 0.132948 0.034033
0.025195 0.094775 0.042904
0.033393 0.107412 0.036046
0.021931 0.171417 0.022726
0.030369 0.181504 0.016233
0.021574 0.144911 0.029602
0.027106 0.158697 0.024736
0.024716 0.139103 -0.109649
0.034873 0.150084 -0.111223
0.024937 0.111900 -0.100695
0.033223 0.125733 -0.104077
0.037802 0.183862 -0.116962
0.048088 0.193327 -0.120705
0.034427 0.165097 -0.115648
0.047212 0.175043 -0.115652
-0.109797 0.182341 0.049103
-0.096663 0.195469 0.043971
-0.111599 0.146431 0.051615
-0.102281 0.164447 0.043430
-0.087235 0.270699 0.024846
-0.071889 0.272816 0.011838
-0.084839 0.252308 0.035839
-0.071510 0.259770 0.025757
-0.164075 0.097497 0.065132
-0.161508 0.100971 0.045682
-0.131042 0.083997 0.066486
-0.131286 0.092328 0.046158
-0.162528 0.115546 0.054040
-0.157143 0.128820 0.037195
-0.143737 0.097387 0.056137
-0.139301 0.108898 0.035773
-0.042460 -0.198826 0.136880
-0.052903 -0.188642 0.121514
-0.044979 -0.226541 0.135018
-0.051472 -0.212337 0.136187
-0.054147 -0.156095 0.124841
-0.055155 -0.146315 0.110099
-0.043390 -0.178011 0.137036
-0.045537 -0.168663 0.123476
-0.102006 0.132109 -0.026529
-0.102857 0.144764 -0.036782
-0.098879 0.112485 -0.025426
-0.096480 0.124717 -0.036890
-0.113235 0.171838 -0.037865
-0.111871 0.183453 -0.049718
-0.109913 0.156431 -0.035074
-0.107757 0.165683 -0.049720
-0.059950 -0.195362 0.140828
-0.069469 -0.183775 0.131713
-0.064357 -0.228027 0.136211
-0.067414 -0.209092 0.138718
-0.067380 -0.150087 0.122109
-0.075723 -0.139147 0.110118
-0.063291 -0.174513 0.129331
-0.069770 -0.164330 0.117760
-0.091809 0.076397 -0.053378
-0.087854 0.090210 -0.061969
-0.095608 0.055269 -0.051808
-0.088851 0.066182 -0.062129
-0.098006 0.117485 -0.047142
-0.096742 0.127082 -0.057393
-0.093940 0.094115 -0.048134
-0.093601 0.108498 -0.057898
0.072973 0.116250 -0.023286
0.081547 0.128882 -0.030748
0.072776 0.095445 -0.034565
0.077693 0.110413 -0.038774
0.082971 0.182442 -0.040468
0.088128 0.192339 -0.047569
0.075258 0.169601 -0.044463
0.085934 0.176172 -0.051344
0.096225 -0.078744 -0.003399
0.096753 -0.066207 -0.009817
0.093348 -0.104904 0.015178
0.095721 -0.092826 0.003696
0.094707 -0.024397 -0.027853
0.093695 -0.011863 -0.036744
0.095055 -0.051303 -0.015794
0.098409 -0.037784 -0.021175
-0.002851 0.194698 0.024391
0.006840 0.203879 0.019128
0.001137 0.171188 0.028349
0.008701 0.182461 0.022853
-0.009158 0.231769 0.014422
0.000690 0.243854 0.008926
-0.005580 0.213848 0.018404
0.005883 0.222173 0.011383
0.059055 0.036122 0.007124
0.060433 0.047753 -0.002293
0.062321 0.016757 0.006476
0.063656 0.027908 -0.004900
0.054471 0.073031 0.017801
0.057100 0.089661 0.011803
0.059388 0.054417 0.013387
0.062560 0.069462 0.006443
0.019751 0.386006 0.014206
0.029096 0.391776 0.003633
0.021294 0.355348 0.016848
0.023915 0.368906 0.004186
0.015993 0.433149 0.003351
0.020070 0.438637 -0.012191
0.019993 0.409154 0.008716
0.028060 0.416300 -0.006183
-0.077040 0.173145 0.017975
-0.072448 0.185039 0.022063
-0.070117 0.145756 0.023161
-0.067739 0.160468 0.022336
-0.076920 0.216366 0.033736
-0.070241 0.231247 0.021332
-0.076237 0.197388 0.033049
-0.065622 0.209248 0.026717
0.002426 0.100033 0.047095
0.012663 0.113474 0.044501
0.004203 0.079129 0.049185
0.012762 0.092078 0.044808
0.002637 0.147169 0.035809
0.011734 0.159382 0.031667
0.002822 0.125174 0.041280
0.013192 0.134748 0.039061
0.131480 0.237309 -0.095734
0.136520 0.238308 -0.082682
0.138061 0.218739 -0.106687
0.146174 0.224150 -0.088665
0.160035 0.199762 -0.094477
0.160058 0.210753 -0.079807
0.176456 0.181717 -0.093089
0.173584 0.196712 -0.080166
-0.038369 -0.098740 0.097769
-0.038349 -0.086900 0.085632
-0.035683 -0.131174 0.110172
-0.037286 -0.115796 0.100163
-0.046820 -0.042781 0.067382
-0.041080 -0.033565 0.056214
-0.043703 -0.069771 0.082645
-0.039959 -0.058076 0.071218
-0.098565 0.264107 -0.070194
-0.083959 0.272966 -0.074738
-0.100494 0.249723 -0.078015
-0.087166 0.259114 -0.080129
-0.086413 0.291568 -0.056228
-0.067947 0.296130 -0.060472
-0.095341 0.278846 -0.062007
-0.076107 0.285977 -0.069899
0.010756 0.315292 -0.014112
0.016025 0.329660 -0.015626
0.018693 0.295613 -0.018995
0.021101 0.307864 -0.028533
0.023122 0.377982 -0.004638
0.021132 0.387307 -0.015385
0.025401 0.355737 -0.007784
0.024559 0.367435 -0.019385
-0.090516 -0.015144 -0.078424
-0.080907 -0.003864 -0.088157
-0.092116 -0.038749 -0.072480
-0.084107 -0.028847 -0.084656
-0.084759 0.021082 -0.075875
-0.076000 0.034150 -0.085003
-0.090676 0.003808 -0.079233
-0.080286 0.015524 -0.087793
0.061948 -0.090166 0.071960
0.063892 -0.075809 0.065229
0.057787 -0.124131 0.086995
0.055730 -0.106158 0.077375
0.056903 -0.035314 0.043510
0.060901 -0.023712 0.033442
0.061135 -0.061383 0.056423
0.064380 -0.048663 0.046301
-0.056262 0.355466 -0.032535
-0.053198 0.366821 -0.046556
-0.056117 0.336182 -0.030722
-0.048740 0.344592 -0.044633
-0.059017 0.413442 -0.053038
-0.055353 0.423272 -0.064669
-0.056154 0.385277 -0.056561
-0.055572 0.399483 -0.066118
-0.121062 0.233856 0.033669
-0.106693 0.247433 0.031831
-0.113129 0.205475 0.044679
-0.108677 0.221200 0.038473
-0.117946 0.270002 0.025248
-0.101629 0.281098 0.016812
-0.115004 0.254814 0.034216
-0.101687 0.267178 0.030319
-0.037879 0.213264 -0.106960
-0.023548 0.222492 -0.112279
-0.034931 0.193150 -0.107767
-0.023969 0.204333 -0.112187
-0.037183 0.247248 -0.100308
-0.022138 0.259665 -0.102592
-0.036341 0.232821 -0.105619
-0.021225 0.240958 -0.109084
-0.152340 0.095359 0.101282
-0.159083 0.102684 0.084242
-0.139958 0.078424 0.106775
-0.128217 0.084230 0.088848
-0.151969 0.124496 0.077165
-0.154896 0.133812 0.059759
-0.139207 0.102194 0.097955
-0.129205 0.110443 0.084233
0.017216 -0.165536 0.043908
0.017422 -0.151302 0.033663
0.016208 -0.203333 0.062975
0.017219 -0.186825 0.056651
-0.005740 -0.103257 0.002458
-0.002790 -0.092751 -0.005899
0.003599 -0.125195 0.019782
0.002052 -0.114270 0.007535
-0.141261 0.240228 -0.013340
-0.134731 0.251699 -0.025310
-0.140771 0.223282 -0.021307
-0.133992 0.236229 -0.030855
-0.133535 0.267953 -0.008046
-0.118680 0.280598 -0.024217
-0.138340 0.256090 -0.006569
-0.128076 0.270009 -0.019155
-0.140281 0.207333 0.033077
-0.137652 0.218317 0.021460
-0.136802 0.184042 0.032704
-0.134992 0.195323 0.017405
-0.134794 0.255954 0.013699
-0.128280 0.268782 0.004988
-0.130955 0.239727 0.023996
-0.124428 0.251607 0.019254
0.007319 -0.072288 0.048424
0.017835 -0.059145 0.045062
0.013924 -0.097102 0.050661
0.021442 -0.082109 0.046950
0.008568 -0.022487 0.048590
0.017442 -0.011395 0.041026
0.008207 -0.047537 0.052889
0.016983 -0.034013 0.049401
-0.114621 0.126206 0.042525
-0.115024 0.138867 0.029557
-0.119121 0.105348 0.058670
-0.117005 0.110783 0.039765
-0.121734 0.184959 0.019900
-0.113645 0.202488 0.017164
-0.117680 0.153706 0.021120
-0.107919 0.169749 0.016069
0.026707 -0.469617 0.012988
0.025492 -0.463368 -0.004452
0.032342 -0.473612 0.037788
0.037108 -0.465596 0.021974
0.026350 -0.454318 -0.018570
0.028281 -0.432396 -0.009556
0.026276 -0.451471 0.024217
0.034944 -0.439146 0.016614
0.042743 0.046990 -0.092821
0.049560 0.060337 -0.091196
0.050308 0.027272 -0.095307
0.057195 0.039496 -0.090153
0.029619 0.088689 -0.096566
0.036785 0.102587 -0.096595
0.034786 0.064788 -0.095630
0.042297 0.076396 -0.093911
0.039149 0.090554 0.032534
0.046053 0.102698 0.025836
0.041662 0.066768 0.033909
0.046670 0.080158 0.026578
0.037499 0.151008 0.024097
0.046148 0.160538 0.014567
0.039307 0.121991 0.025980
0.041277 0.139438 0.021616
-0.139784 0.141456 0.064136
-0.125636 0.153004 0.055869
-0.138624 0.121176 0.075168
-0.119828 0.132562 0.063407
-0.129412 0.195633 0.040400
-0.125277 0.214690 0.033059
-0.133748 0.165810 0.052605
-0.125462 0.179775 0.046872
-0.018342 -0.170626 0.105323
-0.023885 -0.158915 0.094476
-0.022050 -0.205135 0.115362
-0.023534 -0.188838 0.106461
-0.019084 -0.125527 0.081099
-0.016971 -0.113541 0.066263
-0.014862 -0.152451 0.089658
-0.018267 -0.141756 0.074206
0.041282 -0.195116 0.112737
0.041056 -0.179942 0.105870
0.044380 -0.225217 0.118149
0.047151 -0.211056 0.117852
0.042665 -0.131261 0.086098
0.048466 -0.116116 0.081432
0.042586 -0.159598 0.097974
0.041831 -0.145511 0.090722
0.066615 0.142656 -0.002988
0.071443 0.155169 -0.013135
0.073156 0.122217 -0.006376
0.071051 0.135081 -0.016667
0.075212 0.196249 -0.017668
0.079078 0.206311 -0.030778
0.072628 0.180100 -0.019747
0.077331 0.192792 -0.034918
-0.073189 -0.214032 0.124744
-0.078828 -0.202312 0.112599
-0.071352 -0.234634 0.117185
-0.076061 -0.224727 0.108276
-0.080941 -0.167932 0.109789
-0.086460 -0.159223 0.096439
-0.077478 -0.188565 0.117595
-0.081966 -0.181173 0.103519
0.014842 0.193371 -0.121449
0.027730 0.202506 -0.125248
0.021204 0.169602 -0.113466
0.027013 0.185986 -0.121250
0.049677 0.219485 -0.122870
0.063820 0.226497 -0.119705
0.042733 0.203359 -0.123198
0.057078 0.209217 -0.121160
0.029413 -0.090896 0.060418
0.036929 -0.080284 0.058155
0.031021 -0.117569 0.076084
0.037150 -0.103619 0.072108
0.026250 -0.044493 0.047827
0.030367 -0.028047 0.041580
0.028570 -0.067190 0.054415
0.035462 -0.053409 0.047724
0.042381 0.114200 -0.096864
0.048041 0.127748 -0.094216
0.047116 0.090292 -0.090254
0.051862 0.104074 -0.087758
0.046469 0.159419 -0.109121
0.060490 0.167174 -0.104902
0.042942 0.138454 -0.103399
0.054727 0.148424 -0.100834
-0.099963 -0.057005 0.054532
-0.104655 -0.053722 0.038964
-0.097211 -0.073836 0.062821
-0.101114 -0.070322 0.045233
-0.100324 -0.014575 0.032883
-0.101765 -0.002586 0.021590
-0.099349 -0.036231 0.045245
-0.105842 -0.027652 0.028982
0.072725 0.161898 -0.025536
0.079252 0.173802 -0.031888
0.076593 0.142732 -0.024755
0.084315 0.154982 -0.036908
0.090518 0.212465 -0.034619
0.090748 0.223055 -0.042988
0.077956 0.203382 -0.046840
0.086962 0.210853 -0.054517
0.074040 -0.300188 -0.009357
0.082239 -0.268969 0.018417
0.068634 -0.323181 -0.017550
0.070802 -0.281931 0.005572
0.067926 -0.239107 0.035803
0.070691 -0.225335 0.038404
0.064538 -0.265059 0.010492
0.072313 -0.249896 0.022881
-0.068664 0.005295 -0.090632
-0.060098 0.018509 -0.095879
-0.071876 -0.015972 -0.092545
-0.060954 -0.004463 -0.099504
-0.061412 0.052982 -0.080151
-0.054231 0.068618 -0.082421
-0.063466 0.029090 -0.084634
-0.055017 0.042489 -0.090546
0.077268 0.140412 -0.067380
0.075200 0.154258 -0.072267
0.074586 0.121694 -0.069055
0.071557 0.134912 -0.075351
0.093449 0.195067 -0.058182
0.095797 0.202867 -0.065831
0.087375 0.182555 -0.060590
0.092586 0.191507 -0.073938
-0.081179 -0.167015 0.059360
-0.077276 -0.161150 0.043310
-0.072534 -0.190064 0.073956
-0.071109 -0.180428 0.059325
-0.093034 -0.132668 0.038728
-0.089267 -0.128359 0.022832
-0.086277 -0.150311 0.048772
-0.083828 -0.143914 0.033331
0.032978 -0.172531 0.094649
0.033932 -0.157819 0.084523
0.036382 -0.210908 0.106427
0.031358 -0.193415 0.099862
0.020457 -0.119853 0.062234
0.027266 -0.105733 0.058348
0.026748 -0.144883 0.078224
0.030036 -0.131759 0.070745
-0.049320 -0.014750 -0.101740
-0.037647 -0.001570 -0.104346
-0.051620 -0.035515 -0.099665
-0.038594 -0.023989 -0.105338
-0.045356 0.026728 -0.092041
-0.037352 0.041595 -0.092833
-0.049451 0.006576 -0.097588
-0.039275 0.017025 -0.102074
0.196547 0.124638 -0.057896
0.205907 0.134664 -0.066156
0.221879 0.103931 -0.052330
0.225965 0.119654 -0.059016
0.215907 0.139065 -0.051851
0.220089 0.155438 -0.058727
0.240964 0.118679 -0.044578
0.241108 0.138746 -0.053476
0.049147 0.130554 0.015917
0.054874 0.142434 0.007069
0.052696 0.107740 0.019079
0.055122 0.120943 0.011410
0.040888 0.189790 0.016690
0.048414 0.201943 0.009157
0.041089 0.171458 0.018695
0.050230 0.179734 0.009505
-0.057565 -0.457214 0.054162
-0.042343 -0.443362 0.043432
-0.063472 -0.469062 0.069199
-0.045710 -0.462165 0.043637
-0.051999 -0.428190 0.041702
-0.055142 -0.394171 0.046350
-0.059307 -0.441936 0.031448
-0.053714 -0.418139 0.031026
-0.080693 0.054120 -0.067876
-0.070750 0.067641 -0.075206
-0.083570 0.037819 -0.070952
-0.075306 0.049111 -0.080304
-0.076995 0.097534 -0.071062
-0.073150 0.108700 -0.079217
-0.078508 0.078810 -0.070727
-0.068773 0.088880 -0.077935
-0.027696 0.281001 -0.091040
-0.011034 0.286566 -0.095808
-0.030859 0.266059 -0.097194
-0.017290 0.275432 -0.102994
-0.020274 0.314640 -0.082024
-0.005993 0.325951 -0.086963
-0.020705 0.297133 -0.085616
-0.007063 0.307610 -0.090576
-0.087920 0.130226 -0.068800
-0.079272 0.140301 -0.077375
-0.083906 0.109040 -0.062461
-0.081780 0.121552 -0.074498
-0.097421 0.173950 -0.074047
-0.090175 0.184899 -0.082219
-0.091824 0.150138 -0.073173
-0.086569 0.161624 -0.080034
0.069359 -0.083462 -0.049722
0.075142 -0.074396 -0.060067
0.068501 -0.107255 -0.027741
0.072257 -0.096178 -0.036734
0.067865 -0.032849 -0.082574
0.068340 -0.016843 -0.083313
0.071209 -0.052992 -0.071018
0.075588 -0.036791 -0.070889
-0.140615 0.175932 0.006170
-0.133351 0.185703 -0.004764
-0.135902 0.144941 0.015058
-0.126437 0.161383 0.002566
-0.148401 0.211294 -0.001371
-0.142033 0.228183 -0.005345
-0.145813 0.194528 -0.002869
-0.138456 0.206189 -0.017683
-0.062876 -0.386514 0.021121
-0.074571 -0.346302 0.046893
-0.066465 -0.400672 0.013307
-0.072949 -0.365322 0.038470
-0.068626 -0.343859 0.013385
-0.075040 -0.304527 0.034041
-0.065402 -0.371874 0.007167
-0.065123 -0.320354 0.030023
-0.089195 0.090781 0.004078
-0.087357 0.104992 0.000266
-0.090195 0.064940 0.004689
-0.085187 0.078906 -0.000066
-0.097751 0.140280 0.005270
-0.091242 0.154721 -0.001329
-0.089167 0.120049 0.004176
-0.086648 0.133793 -0.001873
-0.061688 -0.261382 0.030857
-0.057504 -0.242913 0.039620
-0.059371 -0.286757 0.014950
-0.051447 -0.261875 0.040567
-0.058453 -0.208190 0.047900
-0.049731 -0.200579 0.035406
-0.057719 -0.230233 0.050626
-0.044405 -0.219984 0.042215
-0.032951 0.109777 -0.094781
-0.025104 0.122514 -0.096495
-0.028686 0.087255 -0.091711
-0.018422 0.100088 -0.093940
-0.036766 0.165790 -0.101751
-0.025914 0.176206 -0.105471
-0.032178 0.142712 -0.099237
-0.022253 0.156134 -0.102234
-0.026546 -0.064351 -0.086175
-0.014130 -0.060958 -0.097846
-0.023893 -0.077282 -0.073809
-0.011894 -0.070026 -0.082522
-0.027474 -0.032794 -0.105100
-0.016665 -0.021301 -0.106974
-0.027450 -0.050119 -0.096818
-0.015110 -0.043498 -0.105299
0.065684 0.059568 -0.062080
0.074627 0.071362 -0.059457
0.072756 0.040489 -0.064578
0.075438 0.054812 -0.068066
0.063578 0.100032 -0.074453
0.067097 0.112581 -0.072027
0.064879 0.078708 -0.068977
0.071700 0.092154 -0.065592
-0.110284 -0.018553 0.016974
-0.112199 -0.009350 0.003507
-0.110667 -0.043118 0.028579
-0.112415 -0.035644 0.012934
-0.104350 0.025839 0.001315
-0.107205 0.036868 -0.010555
-0.105753 0.006376 0.009731
-0.108547 0.015541 -0.006508
0.018709 -0.023586 -0.111273
0.028902 -0.009822 -0.110982
0.021678 -0.045162 -0.106529
0.029742 -0.030891 -0.111000
0.010415 0.015512 -0.106250
0.021442 0.028957 -0.106234
0.012065 -0.005534 -0.113012
0.023204 0.009237 -0.110396
-0.043587 -0.449093 -0.009510
-0.041334 -0.436878 -0.015249
-0.054267 -0.458176 0.020411
-0.045181 -0.445923 0.008420
-0.028591 -0.377013 -0.014483
-0.024947 -0.328470 0.011004
-0.031828 -0.400171 -0.026423
-0.032189 -0.345735 0.004788
-0.049810 0.083202 -0.086376
-0.041726 0.096432 -0.090492
-0.046204 0.056356 -0.089359
-0.038739 0.072083 -0.088829
-0.053546 0.144065 -0.092903
-0.045207 0.156926 -0.098045
-0.046577 0.119113 -0.091864
-0.040551 0.131802 -0.096263
-0.027613 0.029571 0.042583
-0.015790 0.040875 0.046201
-0.027710 0.006135 0.040794
-0.017718 0.019413 0.042648
-0.020084 0.079915 0.050164
-0.008351 0.090077 0.049657
-0.022881 0.055545 0.047799
-0.010171 0.065083 0.049669
0.075954 -0.058707 0.050454
0.080137 -0.048815 0.037575
0.074920 -0.086884 0.065704
0.076733 -0.072849 0.055390
0.064811 -0.010534 0.025252
0.068099 -0.002306 0.014271
0.072488 -0.035281 0.040448
0.076464 -0.024545 0.027338
0.064486 0.159413 -0.095503
0.073123 0.172311 -0.096940
0.069833 0.143904 -0.082766
0.076080 0.156048 -0.085693
0.082059 0.217568 -0.101651
0.096925 0.223069 -0.097439
0.076322 0.199486 -0.100460
0.090788 0.206311 -0.098176
-0.085130 -0.082498 0.083148
-0.090650 -0.070126 0.073952
-0.084420 -0.108372 0.099790
-0.089921 -0.096561 0.087337
-0.084601 -0.028294 0.053520
-0.089958 -0.018125 0.042143
-0.087679 -0.056415 0.066607
-0.091262 -0.045098 0.055783
0.088037 -0.118156 0.010235
0.086172 -0.105414 -0.001266
0.086341 -0.137422 0.034093
0.088687 -0.124062 0.024605
0.088682 -0.068072 -0.026672
0.092116 -0.054345 -0.029879
0.089404 -0.094382 -0.010383
0.090991 -0.079822 -0.018038
0.022686 0.232487 -0.127301
0.038124 0.242385 -0.127878
0.023622 0.215738 -0.126500
0.037362 0.224912 -0.127693
0.051766 0.251457 -0.124615
0.066840 0.259748 -0.120389
0.054115 0.237844 -0.125670
0.070613 0.243761 -0.121070
-0.101955 -0.098249 0.017506
-0.098351 -0.093961 0.001179
-0.097033 -0.115237 0.028225
-0.093434 -0.109881 0.011517
-0.108550 -0.062983 -0.005535
-0.106608 -0.058298 -0.022891
-0.105650 -0.082880 0.005325
-0.102690 -0.077053 -0.010788
0.043460 -0.288606 -0.012222
0.047260 -0.257754 0.013129
0.045261 -0.310708 -0.021812
0.048158 -0.272625 0.001347
0.028173 -0.204850 0.031089
0.027651 -0.193679 0.018567
0.028040 -0.233695 0.032291
0.034110 -0.221997 0.025493
0.002758 -0.115385 0.042935
0.008037 -0.101309 0.033437
0.009552 -0.136169 0.058875
0.009834 -0.125923 0.048078
-0.011679 -0.079999 0.028777
-0.004344 -0.067431 0.020765
-0.006229 -0.095782 0.036881
0.004437 -0.085030 0.026135
0.054662 -0.312648 0.048544
0.050212 -0.282365 0.073586
0.050228 -0.330791 0.036257
0.049343 -0.297976 0.058984
0.044056 -0.251016 0.103099
0.047667 -0.237485 0.112996
0.065305 -0.284187 0.068845
0.052238 -0.267832 0.088788
0.045661 -0.063815 0.056985
0.049352 -0.051024 0.046773
0.047216 -0.092070 0.068747
0.050972 -0.079815 0.060482
0.033106 -0.012575 0.037275
0.036919 -0.000721 0.029010
0.040783 -0.037394 0.046294
0.045464 -0.024379 0.035486
-0.048630 -0.317718 0.068591
-0.058447 -0.292081 0.093577
-0.051999 -0.335789 0.058837
-0.060667 -0.311000 0.078179
-0.049969 -0.268994 0.108521
-0.058761 -0.253827 0.116229
-0.051785 -0.295259 0.079779
-0.060892 -0.275831 0.100342
0.087841 -0.013084 -0.051609
0.085668 0.000427 -0.056076
0.091790 -0.041220 -0.036328
0.090988 -0.025633 -0.041853
0.081317 0.015190 -0.060443
0.081303 0.028626 -0.060567
0.090316 -0.000261 -0.038037
0.087248 0.013386 -0.047661
-0.033680 -0.365655 0.011028
-0.028104 -0.338899 0.050112
-0.033661 -0.383899 0.000726
-0.028387 -0.354140 0.031201
-0.026077 -0.331954 0.035829
-0.026697 -0.306169 0.070638
-0.033291 -0.345023 0.020598
-0.030474 -0.322961 0.057926
-0.086269 -0.127303 0.097777
-0.092758 -0.124441 0.079644
-0.082585 -0.150279 0.106980
-0.089892 -0.140780 0.091664
-0.095415 -0.090119 0.073296
-0.100198 -0.086863 0.056874
-0.094271 -0.110160 0.081727
-0.098660 -0.106162 0.066786
0.072779 0.038511 -0.043128
0.075893 0.052141 -0.051089
0.080852 0.024373 -0.042119
0.085687 0.035819 -0.046935
0.070247 0.073960 -0.041601
0.077712 0.083896 -0.046186
0.072260 0.058042 -0.034725
0.078517 0.066733 -0.044274
-0.054847 0.318190 -0.024941
-0.043852 0.331724 -0.030600
-0.047291 0.301262 -0.013193
-0.038727 0.312009 -0.018720
-0.047346 0.377748 -0.010679
-0.047668 0.392553 -0.023735
-0.050251 0.357408 -0.016214
-0.049569 0.368813 -0.026255
0.059408 0.132627 -0.093389
0.059722 0.146364 -0.093086
0.060470 0.111603 -0.086831
0.065389 0.123312 -0.082242
0.059969 0.193055 -0.114158
0.073054 0.201143 -0.110629
0.058436 0.177709 -0.109477
0.070999 0.185116 -0.105258
0.038350 -0.284216 0.043753
0.031152 -0.258627 0.067674
0.032869 -0.301718 0.033003
0.033713 -0.271358 0.060944
0.020865 -0.205289 0.083571
0.022393 -0.193422 0.072689
0.020032 -0.223845 0.081899
0.027968 -0.213799 0.069951
-0.007398 -0.139028 0.025022
-0.010315 -0.125829 0.014085
-0.010084 -0.163902 0.044332
-0.007736 -0.150770 0.033031
-0.020569 -0.094351 -0.025271
-0.012598 -0.081737 -0.031537
-0.017359 -0.113883 -0.007396
-0.010783 -0.098780 -0.018203
-0.007756 -0.120872 0.032830
0.004916 -0.112117 0.022545
-0.002264 -0.141191 0.044999
0.005277 -0.130981 0.032555
-0.016162 -0.082260 -0.002643
-0.011371 -0.072576 -0.015324
-0.008573 -0.089191 0.006488
-0.003528 -0.078235 -0.005615
0.100774 0.235417 -0.043726
0.104685 0.244232 -0.054578
0.089419 0.226322 -0.055824
0.100104 0.231701 -0.061500
0.117388 0.234795 -0.048475
0.119741 0.248888 -0.060040
0.124403 0.212294 -0.055632
0.130362 0.227285 -0.062106
-0.070629 -0.015055 0.049830
-0.068165 -0.002616 0.042975
-0.062824 -0.040500 0.069071
-0.063640 -0.028005 0.057841
-0.065392 0.033423 0.032229
-0.052490 0.044762 0.031881
-0.065374 0.010001 0.035105
-0.056497 0.022589 0.033161
-0.006658 0.229679 -0.117099
0.008466 0.239532 -0.122234
-0.009716 0.212175 -0.116555
0.006505 0.219715 -0.122656
-0.004285 0.268088 -0.108405
0.010384 0.277323 -0.113246
-0.007007 0.249638 -0.112109
0.009087 0.259724 -0.117210
-0.001712 -0.109913 -0.015362
-0.001658 -0.095595 -0.027603
-0.003136 -0.127717 0.001925
0.001233 -0.115983 -0.005571
-0.027963 -0.079364 -0.055591
-0.016096 -0.070308 -0.065538
-0.021913 -0.085024 -0.041960
-0.011113 -0.076539 -0.052895
-0.152475 0.140947 0.031991
-0.149072 0.151969 0.017618
-0.149805 0.119669 0.041596
-0.137125 0.131426 0.024493
-0.147756 0.175580 0.028790
-0.149602 0.188266 0.014960
-0.142762 0.153362 0.040190
-0.144775 0.163722 0.024085
0.054856 -0.412874 -0.050555
0.065098 -0.362401 -0.022578
0.052935 -0.426681 -0.033553
0.063040 -0.389703 -0.014620
0.066875 -0.343926 -0.022021
0.082809 -0.300301 0.004677
0.077241 -0.359586 -0.024865
0.081603 -0.311974 -0.001683
0.030762 0.020717 -0.100584
0.039281 0.035429 -0.102586
0.036770 0.000696 -0.103881
0.045046 0.015608 -0.104155
0.016571 0.063313 -0.098434
0.024279 0.077012 -0.098844
0.019405 0.041449 -0.098731
0.029419 0.052881 -0.099651
-0.040552 -0.289393 0.037398
-0.037564 -0.265600 0.058971
-0.037407 -0.306985 0.025807
-0.037479 -0.276368 0.049696
-0.036118 -0.227466 0.093009
-0.037567 -0.211049 0.084498
-0.045777 -0.255862 0.069716
-0.039740 -0.243232 0.081972
0.093959 -0.066717 0.025225
0.099697 -0.054680 0.017835
0.095178 -0.088869 0.040459
0.098463 -0.080078 0.029439
0.093214 -0.015841 -0.007213
0.096147 -0.007145 -0.020970
0.096636 -0.041451 0.008768
0.103922 -0.034167 -0.002587
-0.088614 0.205354 -0.086964
-0.077200 0.217457 -0.096656
-0.081236 0.190977 -0.091941
-0.072287 0.202930 -0.099020
-0.091413 0.239730 -0.083799
-0.079466 0.251546 -0.090565
-0.091217 0.222678 -0.086506
-0.079241 0.234154 -0.093934
-0.045245 -0.089496 -0.053646
-0.037300 -0.080871 -0.068987
-0.036028 -0.102860 -0.032768
-0.032670 -0.092783 -0.044878
-0.053369 -0.056592 -0.091148
-0.040906 -0.046611 -0.098762
-0.048487 -0.075726 -0.075737
-0.038648 -0.067773 -0.087861
-0.047599 -0.380066 0.012902
-0.046781 -0.346122 0.042751
-0.048168 -0.401092 0.002013
-0.050026 -0.363640 0.024882
-0.047479 -0.348970 0.012714
-0.050881 -0.303246 0.038121
-0.049856 -0.371062 -0.004369
-0.048142 -0.327332 0.020043
-0.041957 0.343578 -0.062019
-0.034891 0.356051 -0.070045
-0.036296 0.323428 -0.069228
-0.024766 0.339484 -0.075890
-0.042654 0.395900 -0.055163
-0.039305 0.406827 -0.069545
-0.038309 0.364191 -0.053279
-0.040129 0.380020 -0.063187
0.088046 -0.265440 0.035634
0.083983 -0.250491 0.053988
0.077991 -0.288280 0.011122
0.073118 -0.263463 0.030209
0.079337 -0.193161 0.082415
0.082980 -0.178532 0.074097
0.072862 -0.226014 0.092885
0.076735 -0.209110 0.089833
-0.101173 0.053747 -0.025408
-0.098799 0.065504 -0.039646
-0.104312 0.035577 -0.027159
-0.102832 0.046086 -0.040269
-0.098240 0.094412 -0.028952
-0.096582 0.106406 -0.039931
-0.098126 0.074823 -0.025891
-0.097321 0.082399 -0.038499
-0.068962 -0.101109 0.104311
-0.073760 -0.092263 0.094366
-0.068878 -0.126698 0.116395
-0.070551 -0.117047 0.105452
-0.076522 -0.049335 0.071682
-0.078970 -0.037102 0.061020
-0.073726 -0.073309 0.087598
-0.074411 -0.062643 0.077435
-0.049299 0.001920 0.039470
-0.040778 0.015133 0.039687
-0.049399 -0.019789 0.052994
-0.038570 -0.009153 0.047888
-0.040349 0.056233 0.043099
-0.028935 0.067923 0.045922
-0.045183 0.031654 0.037318
-0.033972 0.043452 0.042220
-0.025002 -0.180830 0.128697
-0.025758 -0.165200 0.123043
-0.026253 -0.213557 0.135518
-0.025659 -0.196413 0.134974
-0.023164 -0.118769 0.099655
-0.023861 -0.107566 0.086537
-0.023776 -0.148746 0.111191
-0.023338 -0.135185 0.097324
-0.086958 -0.464299 0.017333
-0.078371 -0.450696 0.004554
-0.082344 -0.476384 0.035679
-0.070560 -0.466372 0.025006
-0.057706 -0.395892 -0.022314
-0.060795 -0.328599 0.002624
-0.058321 -0.413358 -0.034020
-0.060963 -0.356976 -0.011825
-0.099196 -0.072736 -0.027341
-0.093832 -0.066228 -0.044388
-0.095321 -0.091447 -0.015248
-0.090806 -0.083699 -0.032476
-0.102731 -0.035674 -0.049730
-0.097088 -0.029221 -0.065213
-0.102108 -0.054985 -0.040122
-0.096392 -0.048836 -0.057124
-0.115844 0.220840 -0.063574
-0.106429 0.232162 -0.074319
-0.105614 0.203332 -0.065246
-0.101748 0.217413 -0.075245
-0.121537 0.249025 -0.050460
-0.112023 0.263613 -0.057592
-0.121291 0.235814 -0.058138
-0.111192 0.247911 -0.066033
-0.032312 -0.288120 0.071271
-0.038795 -0.260245 0.093952
-0.034206 -0.304791 0.056182
-0.037000 -0.280585 0.088885
-0.030337 -0.242089 0.121193
-0.028511 -0.228829 0.128221
-0.024067 -0.264965 0.095728
-0.034723 -0.251542 0.112179
0.012092 -0.156631 0.060348
0.014461 -0.147823 0.046344
0.014733 -0.179805 0.072514
0.016873 -0.171775 0.059252
-0.010472 -0.094488 0.021700
-0.004347 -0.080483 0.012794
-0.011954 -0.109288 0.023891
0.001020 -0.101502 0.015537
0.043358 -0.466545 -0.027583
0.039594 -0.466465 -0.041635
0.052281 -0.478164 -0.001725
0.045773 -0.470106 -0.014321
0.028420 -0.451926 -0.072910
0.026251 -0.404998 -0.050212
0.038868 -0.450669 -0.042249
0.042018 -0.432497 -0.041160
0.061976 -0.176876 0.028527
0.065479 -0.167945 0.016400
0.062032 -0.211085 0.040280
0.063030 -0.195171 0.032683
0.069127 -0.129690 -0.011453
0.072696 -0.116599 -0.016958
0.067361 -0.154845 0.010607
0.071047 -0.142291 -0.000268
-0.105651 -0.000510 -0.055921
-0.099038 0.009262 -0.068816
-0.106520 -0.017286 -0.053440
-0.100039 -0.009791 -0.067979
-0.099749 0.036402 -0.052121
-0.093703 0.046726 -0.063086
-0.103279 0.018267 -0.054189
-0.096129 0.029130 -0.068977
-0.149475 -0.062619 0.193972
-0.160215 -0.068496 0.169668
-0.134447 -0.079989 0.211697
-0.142493 -0.077684 0.191856
-0.129329 -0.039128 0.169532
-0.136367 -0.031301 0.150716
-0.101994 -0.043700 0.182907
-0.116058 -0.037477 0.166708
0.099924 0.216514 -0.062150
0.113599 0.221858 -0.070299
0.087102 0.206158 -0.072862
0.100863 0.211132 -0.076544
0.128848 0.194886 -0.057709
0.143329 0.208385 -0.061537
0.143489 0.173283 -0.061002
0.148198 0.192587 -0.059725
-0.064161 0.218815 0.012751
-0.051282 0.229533 0.010512
-0.062511 0.198749 0.015583
-0.046253 0.210282 0.012637
-0.057365 0.276052 -0.022217
-0.046594 0.288323 -0.023963
-0.056179 0.266138 -0.009134
-0.040219 0.274230 -0.016396
-0.049194 -0.464329 -0.001726
-0.036817 -0.459952 -0.023943
-0.045934 -0.478920 0.010638
-0.034105 -0.470049 -0.002736
-0.038306 -0.431401 -0.039984
-0.041965 -0.387402 -0.022666
-0.034215 -0.435247 -0.027472
-0.038779 -0.417665 -0.019937
-0.172931 -0.062096 0.196211
-0.179054 -0.061718 0.174597
-0.155635 -0.081538 0.210309
-0.168839 -0.079546 0.189209
-0.175782 -0.031234 0.173613
-0.167934 -0.025817 0.149853
-0.146025 -0.031949 0.185620
-0.151542 -0.033843 0.167682
0.080659 -0.199567 0.072477
0.083456 -0.187542 0.064687
0.078794 -0.233140 0.071444
0.078693 -0.216313 0.074914
0.087218 -0.151872 0.032580
0.087384 -0.139353 0.021102
0.083671 -0.170324 0.049195
0.083085 -0.158571 0.041198
-0.026321 0.013071 -0.101362
-0.015925 0.028135 -0.099768
-0.026571 -0.009780 -0.107888
-0.015988 0.004812 -0.106879
-0.029088 0.056575 -0.091522
-0.021300 0.071169 -0.090437
-0.028522 0.029739 -0.096769
-0.019795 0.043876 -0.094922
-0.108589 0.154865 -0.014896
-0.108647 0.167091 -0.023269
-0.102956 0.136279 -0.008342
-0.100796 0.146383 -0.020319
-0.124201 0.196674 -0.009775
-0.123705 0.208370 -0.019901
-0.117519 0.177046 -0.014051
-0.116411 0.191065 -0.022547
0.030654 -0.320075 0.026230
0.030888 -0.285685 0.054074
0.027189 -0.337581 0.011443
0.034816 -0.304325 0.044848
0.025174 -0.244209 0.076318
0.027819 -0.231422 0.072160
0.019650 -0.260037 0.043328
0.024309 -0.246836 0.058474
0.173318 0.135325 -0.091856
0.174631 0.151938 -0.104379
0.197587 0.112477 -0.085828
0.204663 0.130819 -0.095608
0.199092 0.147169 -0.098191
0.201993 0.169002 -0.089823
0.218039 0.130065 -0.085525
0.220716 0.148243 -0.083646
-0.004222 0.039410 -0.097276
0.005246 0.054110 -0.098701
-0.005389 0.017872 -0.104562
0.003998 0.032125 -0.103168
-0.011424 0.082242 -0.094835
-0.001940 0.096714 -0.096038
-0.010630 0.057595 -0.095303
-0.000515 0.070970 -0.094830
0.028539 -0.404547 -0.033151
0.033334 -0.350022 -0.012761
0.027721 -0.421569 -0.032998
0.038187 -0.379280 -0.002840
0.024823 -0.360250 -0.035917
0.027654 -0.305134 -0.016496
0.029728 -0.382934 -0.047822
0.030148 -0.321862 -0.026717
0.073341 0.186062 -0.092411
0.086843 0.194109 -0.090937
0.074633 0.170717 -0.082141
0.087488 0.180752 -0.085779
0.076450 0.228655 -0.113945
0.080798 0.239831 -0.109699
0.065476 0.211642 -0.114305
0.077687 0.216177 -0.113462
0.048784 -0.071089 -0.082209
0.053241 -0.058467 -0.088620
0.055460 -0.088333 -0.060139
0.060473 -0.077014 -0.068219
0.040801 -0.027896 -0.105212
0.044993 -0.012688 -0.104792
0.042659 -0.052892 -0.095755
0.048620 -0.037176 -0.098943
-0.073732 -0.261226 0.079200
-0.068262 -0.245036 0.078939
-0.066852 -0.284374 0.048574
-0.068864 -0.265821 0.057672
-0.072651 -0.209820 0.073298
-0.063865 -0.199579 0.063526
-0.069120 -0.232010 0.067921
-0.062423 -0.218553 0.062215
0.088173 -0.034301 0.025022
0.092572 -0.024726 0.011972
0.090099 -0.058954 0.038864
0.094034 -0.047912 0.027433
0.076119 0.007167 0.004569
0.083505 0.013968 -0.006883
0.081120 -0.013013 0.017134
0.087148 -0.006078 0.004403
-0.087933 -0.272358 0.053475
-0.077900 -0.255196 0.051607
-0.076893 -0.299945 0.022835
-0.072541 -0.269426 0.038174
-0.078440 -0.238466 0.093839
-0.076482 -0.223730 0.082013
-0.083566 -0.259920 0.067842
-0.079722 -0.242388 0.065634
0.062399 -0.338837 0.016276
0.070306 -0.302163 0.040909
0.062215 -0.353221 -0.000812
0.065237 -0.320077 0.029135
0.078358 -0.297518 0.021635
0.074515 -0.269448 0.043495
0.073404 -0.310308 0.011235
0.079891 -0.280702 0.031355
0.043368 0.303027 -0.104738
0.065134 0.301998 -0.098307
0.031297 0.292510 -0.114300
0.052014 0.293706 -0.108964
0.079426 0.299283 -0.088654
0.092494 0.293545 -0.078935
0.098037 0.279721 -0.097016
0.106089 0.280059 -0.086083
-0.052641 0.387180 0.000240
-0.054239 0.400376 -0.011159
-0.047721 0.357677 0.008310
-0.046080 0.372555 0.007903
-0.048961 0.438455 -0.010865
-0.044884 0.446504 -0.025988
-0.054602 0.418376 -0.015932
-0.054263 0.427625 -0.027673
0.151255 0.150055 -0.077768
0.157365 0.158680 -0.094378
0.178983 0.129249 -0.072217
0.180969 0.144177 -0.078174
0.183682 0.164671 -0.092057
0.187041 0.185287 -0.078876
0.201520 0.149515 -0.073910
0.203198 0.169810 -0.069323
-0.118252 0.276426 -0.034944
-0.106449 0.288803 -0.039617
-0.122102 0.263834 -0.042827
-0.108424 0.277116 -0.051260
-0.083240 0.297897 -0.030162
-0.063830 0.304157 -0.036730
-0.093816 0.295281 -0.042134
-0.075385 0.299225 -0.046722
-0.014970 0.136349 -0.102567
-0.006185 0.150157 -0.106239
-0.010439 0.113553 -0.098691
-0.001985 0.128362 -0.103025
-0.014838 0.189344 -0.111472
-0.000570 0.200900 -0.118623
-0.011701 0.167811 -0.110153
-0.000660 0.181771 -0.114629
0.024880 0.343007 -0.021452
0.024005 0.357488 -0.028627
0.021519 0.327458 -0.033570
0.018598 0.344707 -0.042922
0.026921 0.407722 -0.023459
0.022854 0.412668 -0.042612
0.029184 0.381096 -0.022848
0.025533 0.389826 -0.036281
0.058954 -0.380431 -0.000242
0.067687 -0.345636 0.027890
0.058395 -0.401511 -0.009537
0.066013 -0.363835 0.018459
0.074294 -0.349005 0.007751
0.080093 -0.312567 0.037013
0.067153 -0.369674 -0.011734
0.081514 -0.332280 0.021141
0.059934 -0.407088 -0.025773
0.072974 -0.365908 0.004712
0.056058 -0.420259 -0.015423
0.065846 -0.381556 0.007525
0.064736 -0.378456 -0.029555
0.074592 -0.325046 -0.004171
0.062163 -0.393243 -0.036618
0.077161 -0.341491 -0.007132
-0.033688 0.203117 0.035201
-0.024104 0.212891 0.026098
-0.029719 0.185001 0.036499
-0.020405 0.196844 0.030783
-0.038476 0.237083 0.020186
-0.028400 0.248197 0.015159
-0.035691 0.220145 0.029968
-0.023990 0.229475 0.021150
-0.082049 -0.193400 0.096125
-0.084864 -0.183560 0.080440
-0.078011 -0.214250 0.099100
-0.078157 -0.205232 0.088040
-0.089089 -0.152066 0.081889
-0.089849 -0.149938 0.064963
-0.084779 -0.172110 0.089502
-0.087197 -0.167351 0.074470
-0.019726 0.264782 0.004230
-0.008702 0.277011 -0.001145
-0.014536 0.248974 0.008784
-0.004459 0.260449 0.003126
-0.015483 0.320150 0.001043
-0.007568 0.335912 0.001483
-0.013794 0.299132 0.004303
-0.003466 0.313189 0.008295
0.072244 -0.194276 0.042909
0.073398 -0.182175 0.033031
0.069719 -0.219856 0.054728
0.074668 -0.209209 0.045746
0.076702 -0.143437 0.014834
0.078865 -0.129838 0.010971
0.074863 -0.166061 0.027436
0.077918 -0.154907 0.023437
-0.016622 0.400457 0.033621
-0.003982 0.410358 0.025656
-0.012153 0.372472 0.036807
0.000295 0.385458 0.032239
-0.013525 0.455863 0.000276
-0.002068 0.460911 -0.015673
-0.013799 0.438251 0.013233
0.000662 0.444113 0.007286
-0.049825 -0.341833 -0.008323
-0.047100 -0.288694 0.020141
-0.055812 -0.373887 -0.022354
-0.050816 -0.308662 0.007410
-0.045652 -0.212282 0.060353
-0.036217 -0.201229 0.046933
-0.041946 -0.247005 0.049907
-0.037878 -0.229843 0.055621
0.033783 -0.231145 0.098626
0.030729 -0.216265 0.091900
0.038508 -0.258844 0.082820
0.036086 -0.244316 0.091319
0.024646 -0.159516 0.069130
0.025453 -0.142649 0.057108
0.026481 -0.188711 0.088117
0.027335 -0.175314 0.077843
-0.103047 0.151934 -0.051100
-0.101068 0.161581 -0.065875
-0.099395 0.136625 -0.048073
-0.097320 0.144219 -0.062450
-0.117540 0.193936 -0.056036
-0.111378 0.208174 -0.069662
-0.108690 0.174602 -0.061439
-0.102292 0.188110 -0.069989
-0.094209 0.012090 0.019924
-0.089265 0.026990 0.015282
-0.083699 -0.005239 0.038409
-0.083807 0.004999 0.030101
-0.080123 0.071573 0.016404
-0.079187 0.086946 0.016502
-0.084646 0.042415 0.015368
-0.080623 0.055776 0.013080
0.097235 0.223454 -0.081716
0.108375 0.227277 -0.086728
0.093159 0.201697 -0.084474
0.104980 0.209497 -0.091590
0.115449 0.271534 -0.083173
0.118673 0.268184 -0.067895
0.123572 0.253219 -0.083375
0.130047 0.251067 -0.069201
0.062374 -0.243029 0.103144
0.059903 -0.226106 0.110531
0.065325 -0.266679 0.077273
0.062675 -0.250498 0.086965
0.056958 -0.167897 0.102280
0.056247 -0.151325 0.094151
0.057507 -0.198435 0.111064
0.058011 -0.183611 0.103901
0.017503 0.211468 0.014793
0.024893 0.222364 0.007220
0.018788 0.191807 0.018877
0.029904 0.201720 0.013077
0.007936 0.253501 -0.000417
0.016387 0.265262 -0.004190
0.014381 0.235162 0.004826
0.022300 0.245788 -0.001690
0.026779 -0.242325 0.042879
0.033201 -0.229154 0.050936
0.031496 -0.268079 0.020971
0.038584 -0.250782 0.036547
0.021968 -0.156551 0.018011
0.023343 -0.145738 0.007857
0.023363 -0.181545 0.042318
0.025880 -0.171752 0.027213
-0.076553 -0.294927 0.081510
-0.082115 -0.273839 0.079706
-0.079456 -0.314260 0.066299
-0.086469 -0.289398 0.071223
-0.073939 -0.257320 0.110102
-0.082100 -0.242223 0.113859
-0.076588 -0.273470 0.096138
-0.077276 -0.255114 0.097004
-0.157822 -0.051652 0.179661
-0.159382 -0.046882 0.157079
-0.130175 -0.054890 0.199805
-0.135593 -0.057439 0.174483
-0.153756 -0.007294 0.169977
-0.162705 -0.008199 0.151887
-0.129842 -0.019444 0.179118
-0.132183 -0.013990 0.160707
-0.079885 -0.093787 -0.037888
-0.073542 -0.085860 -0.051351
-0.072856 -0.112836 -0.019298
-0.066477 -0.102441 -0.033371
-0.089184 -0.058741 -0.063955
-0.082991 -0.050690 -0.078617
-0.085997 -0.075250 -0.052533
-0.077734 -0.067790 -0.067587
0.078513 0.229625 -0.014984
0.089652 0.234757 -0.030528
0.077225 0.211642 -0.014554
0.079401 0.222918 -0.028792
0.071688 0.260499 -0.034373
0.084461 0.265959 -0.036907
0.078299 0.247582 -0.026023
0.090906 0.251924 -0.037663
-0.042458 0.424994 -0.075251
-0.032396 0.438220 -0.082870
-0.043428 0.403724 -0.080476
-0.035005 0.417989 -0.087233
-0.025574 0.464272 -0.052604
-0.004919 0.465827 -0.051006
-0.035224 0.449194 -0.065069
-0.025587 0.458323 -0.073843
0.084096 -0.035992 -0.056539
0.084476 -0.022665 -0.059802
0.085461 -0.055285 -0.045100
0.087150 -0.041505 -0.047500
0.071851 -0.003674 -0.076689
0.076727 0.011462 -0.072377
0.078007 -0.021411 -0.072132
0.082025 -0.006190 -0.067080
-0.144653 0.231598 0.022690
-0.143189 0.239447 0.005260
-0.150845 0.207076 0.017896
-0.146411 0.222023 0.009287
-0.114642 0.285095 -0.010121
-0.098772 0.291513 -0.017712
-0.118698 0.279100 0.011801
-0.104346 0.283855 0.001596
0.257700 0.089911 -0.035688
0.263191 0.108662 -0.047731
0.279216 0.071360 -0.031291
0.283738 0.083692 -0.051097
0.250146 0.116702 -0.039481
0.259927 0.133988 -0.045230
0.280616 0.097777 -0.032318
0.281817 0.116461 -0.047641
0.122327 0.193427 -0.079397
0.132277 0.207423 -0.083144
0.134203 0.176159 -0.073180
0.143446 0.187894 -0.082689
0.159647 0.177093 -0.066130
0.165850 0.197365 -0.064581
0.172158 0.154945 -0.061067
0.178162 0.174486 -0.064753
0.058081 -0.043819 -0.091996
0.061503 -0.028391 -0.093768
0.062503 -0.064320 -0.075241
