ply
format ascii 1.0
element vertex 1680
property float x
property float y
property float z
end_header
0.051779 0.023120 0.010952
0.052103 -0.011877 0.030243
0.055640 0.000744 0.020766
0.042855 0.043933 0.027462
0.051063 0.057637 0.020227
0.040760 0.026424 0.022134
0.050566 0.039212 0.012052
-0.026021 0.392147 -0.082581
-0.016229 0.404566 -0.087983
-0.020538 0.365564 -0.074137
-0.013689 0.380057 -0.082500
-0.014666 0.447750 -0.079700
-0.000360 0.457487 -0.076101
-0.017212 0.425566 -0.081587
-0.006753 0.435660 -0.085653
0.035643 -0.444604 -0.051768
0.039451 -0.395759 -0.028025
0.041035 -0.444425 -0.010830
0.036880 -0.416527 -0.004030
0.030844 -0.404708 -0.049239
0.034810 -0.345632 -0.020553
0.031037 -0.427144 -0.060543
0.040598 -0.374991 -0.027601
0.015807 0.023869 0.035975
0.028803 0.033489 0.031104
0.014310 0.001765 0.037835
0.026338 0.011995 0.032301
0.022648 0.070170 0.043846
0.032813 0.082022 0.038680
0.020820 0.044765 0.042684
0.031676 0.054806 0.036464
-0.070759 0.055146 0.020600
-0.066047 0.070808 0.018271
-0.075910 0.024838 0.021685
-0.070838 0.041586 0.016920
-0.069544 0.110580 0.017018
-0.064114 0.124014 0.021155
-0.068348 0.084709 0.018662
-0.062497 0.099825 0.020723
0.023543 -0.145301 -0.007364
0.028994 -0.139224 -0.017643
0.026625 -0.167674 0.017120
0.027949 -0.154830 0.001566
0.007316 -0.092875 -0.045300
0.013307 -0.082117 -0.058598
0.012168 -0.116884 -0.026305
0.015044 -0.104881 -0.041493
-0.048469 0.420056 0.001186
-0.046076 0.432614 -0.009511
-0.041074 0.393134 0.013359
-0.039829 0.409211 0.008007
-0.030262 0.468730 -0.038763
-0.013111 0.477168 -0.037823
-0.034397 0.463060 -0.013779
-0.017742 0.470423 -0.020902
0.244851 0.028781 0.017190
0.250266 0.029520 -0.011480
0.278722 0.015884 0.019794
0.285483 0.012387 -0.009534
0.252819 0.060358 -0.008501
0.252268 0.066060 -0.031976
0.268933 0.036414 0.002643
0.273325 0.042140 -0.020594
-0.075545 -0.150237 0.020294
-0.072226 -0.140246 0.005746
-0.068351 -0.173846 0.041361
-0.066213 -0.161120 0.027588
-0.087925 -0.106505 -0.009681
-0.084948 -0.099125 -0.025759
-0.084421 -0.128119 0.005800
-0.078754 -0.121361 -0.007999
0.024177 0.125154 0.036695
0.033008 0.139128 0.031681
0.025289 0.098929 0.039484
0.034576 0.111217 0.033636
0.025102 0.177463 0.021560
0.032683 0.188627 0.014034
0.024617 0.151240 0.027076
0.033226 0.164307 0.020687
0.029246 0.140249 -0.111720
0.040139 0.151760 -0.111603
0.030351 0.112847 -0.105653
0.038093 0.126472 -0.106316
0.042904 0.181153 -0.117395
0.053508 0.193045 -0.118236
0.039084 0.164356 -0.118405
0.052024 0.173346 -0.117462
-0.102498 0.200812 0.033356
-0.091629 0.214068 0.029424
-0.109094 0.164061 0.038852
-0.096538 0.183026 0.032702
-0.086592 0.281807 0.010309
-0.070466 0.286731 -0.001243
-0.084348 0.262662 0.024354
-0.072359 0.269171 0.013411
-0.161035 0.078643 0.056139
-0.151679 0.082391 0.035256
-0.126687 0.067817 0.066270
-0.128854 0.072746 0.048006
-0.160321 0.097077 0.037834
-0.148258 0.105398 0.019487
-0.129952 0.084514 0.054969
-0.133474 0.090130 0.035159
-0.041253 -0.191841 0.131824
-0.046339 -0.178298 0.115615
-0.050948 -0.216809 0.128103
-0.054977 -0.202477 0.121922
-0.051832 -0.154291 0.119444
-0.059772 -0.141435 0.107130
-0.051480 -0.180201 0.134687
-0.053989 -0.166844 0.120787
-0.100349 0.140223 -0.037507
-0.100719 0.150957 -0.047497
-0.096925 0.119629 -0.034379
-0.096140 0.131374 -0.046225
-0.107756 0.179482 -0.046118
-0.106947 0.193067 -0.056866
-0.106517 0.163106 -0.046227
-0.105149 0.173530 -0.057687
-0.061525 -0.189604 0.140961
-0.073977 -0.178312 0.129205
-0.065451 -0.220992 0.136090
-0.067980 -0.205369 0.135776
-0.068304 -0.147308 0.122074
-0.078390 -0.139605 0.108051
-0.065368 -0.168068 0.130795
-0.073907 -0.158865 0.117136
-0.094069 0.083789 -0.059095
-0.089992 0.096446 -0.069555
-0.095083 0.062184 -0.058854
-0.090239 0.074128 -0.068913
-0.099675 0.123433 -0.055411
-0.097091 0.136765 -0.069086
-0.093866 0.105105 -0.057583
-0.093305 0.118450 -0.068250
0.082512 0.119672 -0.021735
0.085965 0.132535 -0.030114
0.084336 0.100619 -0.032344
0.082900 0.115519 -0.039315
0.082881 0.184371 -0.042116
0.086101 0.196084 -0.052058
0.082402 0.167178 -0.045073
0.093032 0.178011 -0.052162
0.099284 -0.083661 -0.000414
0.102095 -0.069950 -0.005755
0.098799 -0.109179 0.019537
0.099928 -0.095201 0.008937
0.102916 -0.025377 -0.025301
0.099668 -0.013020 -0.034641
0.100471 -0.057925 -0.015246
0.102584 -0.044201 -0.021741
-0.000219 0.199679 0.020585
0.008312 0.210646 0.015595
0.003004 0.174959 0.025581
0.010807 0.187384 0.022955
-0.007461 0.238815 0.011484
0.003142 0.249812 0.007234
-0.004552 0.220489 0.014696
0.007516 0.227606 0.008733
0.063769 0.034804 0.003429
0.063565 0.046929 -0.007475
0.065108 0.012798 0.010146
0.069687 0.023578 -0.002761
0.058125 0.074237 0.015481
0.061155 0.089945 0.009704
0.061734 0.054609 0.008334
0.064442 0.069410 0.001615
0.030437 0.391090 0.013362
0.034981 0.400371 0.001322
0.025939 0.359931 0.016432
0.032582 0.373371 0.002035
0.018274 0.443897 0.001549
0.027810 0.446790 -0.015975
0.024586 0.418914 0.006869
0.031890 0.426939 -0.005650
-0.077509 0.172388 0.012237
-0.073669 0.187266 0.013961
-0.069103 0.147459 0.014856
-0.067462 0.162324 0.014998
-0.080481 0.233127 0.022589
-0.070265 0.244354 0.007941
-0.078265 0.210680 0.022229
-0.069673 0.223652 0.013932
0.004649 0.100711 0.044364
0.013980 0.113216 0.040295
0.003226 0.075553 0.047645
0.013986 0.087094 0.043515
0.004770 0.152269 0.032882
0.015631 0.164838 0.028544
0.005477 0.127576 0.038547
0.014876 0.139748 0.034713
0.122815 0.256687 -0.093591
0.130126 0.256269 -0.080251
0.131395 0.230965 -0.094811
0.134903 0.239547 -0.080504
0.141867 0.218396 -0.076209
0.136345 0.229695 -0.065386
0.153666 0.191899 -0.079989
0.149738 0.207737 -0.071261
-0.039845 -0.100388 0.095418
-0.040339 -0.086734 0.085733
-0.036756 -0.132074 0.113979
-0.039070 -0.115847 0.102883
-0.047694 -0.045106 0.066159
-0.043045 -0.035593 0.055711
-0.042967 -0.070271 0.082765
-0.039508 -0.061010 0.068882
-0.096684 0.271128 -0.072053
-0.082750 0.279761 -0.079046
-0.099446 0.258044 -0.081240
-0.084074 0.266576 -0.085983
-0.085512 0.300210 -0.061377
-0.069672 0.304727 -0.065491
-0.094065 0.285750 -0.066878
-0.073117 0.292451 -0.075667
0.015190 0.323029 -0.013878
0.020645 0.337307 -0.017947
0.022037 0.303494 -0.017656
0.027675 0.317042 -0.026380
0.029351 0.386589 -0.007655
0.025306 0.398372 -0.017944
0.025386 0.369521 -0.011669
0.029809 0.379471 -0.024940
-0.091267 -0.014258 -0.086561
-0.081042 -0.002719 -0.096191
-0.090636 -0.033917 -0.081981
-0.082299 -0.023390 -0.093121
-0.085636 0.026008 -0.084463
-0.075093 0.040162 -0.093662
-0.089134 0.007531 -0.087982
-0.078329 0.019755 -0.097267
0.062034 -0.092022 0.077206
0.065061 -0.076232 0.070999
0.057343 -0.125464 0.092464
0.059613 -0.107762 0.085323
0.060225 -0.036799 0.042819
0.064953 -0.024234 0.033167
0.062880 -0.065175 0.058057
0.066283 -0.050618 0.050723
-0.048747 0.362703 -0.035408
-0.048865 0.373929 -0.049144
-0.052387 0.345233 -0.032748
-0.043737 0.351823 -0.048956
-0.054700 0.425332 -0.058665
-0.049480 0.433570 -0.071018
-0.053031 0.395564 -0.053554
-0.051994 0.409641 -0.064923
-0.119792 0.230221 0.023517
-0.109691 0.244708 0.020730
-0.118831 0.192279 0.030628
-0.113183 0.213425 0.026608
-0.118969 0.272601 0.014264
-0.103727 0.285913 0.007052
-0.114539 0.258960 0.021212
-0.100781 0.270264 0.017739
-0.034433 0.218916 -0.113785
-0.017766 0.227257 -0.119323
-0.028991 0.199192 -0.114312
-0.017527 0.210377 -0.118792
-0.034478 0.254057 -0.106842
-0.018867 0.261836 -0.109016
-0.033265 0.235895 -0.111410
-0.017116 0.244094 -0.113336
-0.153415 0.074379 0.092658
-0.161006 0.079862 0.071554
-0.132610 0.056559 0.107084
-0.122067 0.064925 0.087547
-0.149528 0.098391 0.081070
-0.158704 0.102581 0.058513
-0.134168 0.080655 0.094315
-0.124955 0.088808 0.075356
0.020537 -0.173385 0.056332
0.024439 -0.162334 0.046275
0.018635 -0.212770 0.077481
0.018182 -0.196585 0.069103
-0.002248 -0.105266 0.005197
-0.001488 -0.093428 -0.005158
0.002093 -0.127289 0.018549
0.006299 -0.116135 0.005941
-0.140572 0.244953 -0.023844
-0.133502 0.256661 -0.040410
-0.141947 0.228550 -0.022427
-0.137780 0.237726 -0.037629
-0.127933 0.275454 -0.017780
-0.121048 0.289603 -0.029138
-0.138931 0.261990 -0.017747
-0.133139 0.273713 -0.032830
-0.133751 0.219599 0.012638
-0.136620 0.229715 -0.006652
-0.135086 0.184501 0.023589
-0.130744 0.197088 0.012943
-0.135227 0.267021 -0.000899
-0.127236 0.284710 -0.008206
-0.131900 0.246657 0.012027
-0.125524 0.261178 0.004090
0.011462 -0.071102 0.043820
0.019530 -0.059366 0.044274
0.017104 -0.099083 0.054513
0.020983 -0.085743 0.049545
0.009465 -0.021350 0.045442
0.020853 -0.011427 0.039107
0.009590 -0.050962 0.050099
0.016717 -0.035234 0.047517
-0.119112 0.128583 0.036958
-0.123425 0.132470 0.015409
-0.116751 0.103824 0.043163
-0.115650 0.114504 0.026679
-0.111635 0.177734 0.020572
-0.108235 0.192773 0.008508
-0.107829 0.149736 0.021234
-0.110714 0.156940 0.010272
0.031150 -0.470576 0.032336
0.028760 -0.459118 0.016529
0.032897 -0.465305 0.056544
0.043438 -0.454517 0.043973
0.026613 -0.441030 0.019706
0.034246 -0.414483 0.021964
0.025129 -0.452116 0.041987
0.031817 -0.434491 0.037214
0.049132 0.047017 -0.096795
0.054508 0.062415 -0.094703
0.055448 0.027588 -0.100915
0.063032 0.038793 -0.095307
0.034977 0.091999 -0.102745
0.041562 0.102274 -0.100755
0.040412 0.069303 -0.099478
0.046748 0.081896 -0.098204
0.042265 0.094349 0.030181
0.050143 0.107966 0.024515
0.042515 0.068773 0.030841
0.049712 0.082811 0.024197
0.041915 0.153272 0.021735
0.049886 0.163752 0.013284
0.041192 0.123838 0.025027
0.046055 0.139852 0.020228
-0.141598 0.119213 0.066693
-0.148123 0.128844 0.050022
-0.128397 0.107345 0.076445
-0.120847 0.121168 0.056418
-0.132686 0.160877 0.036081
-0.122970 0.176963 0.031569
-0.130662 0.138361 0.053970
-0.120379 0.150789 0.042718
-0.022096 -0.172601 0.107205
-0.026901 -0.158044 0.099103
-0.023942 -0.207397 0.117895
-0.027405 -0.190447 0.111913
-0.018982 -0.125283 0.079866
-0.018793 -0.113400 0.064929
-0.015634 -0.157299 0.091048
-0.018538 -0.143959 0.080193
0.040208 -0.196049 0.126062
0.039892 -0.179749 0.119184
0.040629 -0.221785 0.128600
0.043592 -0.208260 0.131303
0.045373 -0.130412 0.090722
0.047842 -0.114556 0.084873
0.041111 -0.156595 0.104800
0.040392 -0.142154 0.096376
0.070229 0.146189 -0.005717
0.076026 0.158784 -0.013569
0.075639 0.125023 -0.005831
0.077339 0.136690 -0.016871
0.077524 0.196105 -0.018909
0.084234 0.203496 -0.030075
0.076144 0.181735 -0.021907
0.079698 0.193395 -0.036333
-0.077781 -0.210654 0.122048
-0.081781 -0.198821 0.108514
-0.071833 -0.235649 0.111112
-0.080106 -0.221617 0.106183
-0.084471 -0.169451 0.110951
-0.089585 -0.160095 0.095525
-0.079423 -0.188560 0.118226
-0.083053 -0.181904 0.103177
0.022879 0.196523 -0.124161
0.037688 0.205346 -0.126109
0.027516 0.169687 -0.118090
0.032220 0.185355 -0.123223
0.053156 0.217217 -0.122811
0.066601 0.227289 -0.121748
0.045897 0.197664 -0.124061
0.060074 0.205763 -0.122397
0.029774 -0.097553 0.065713
0.035597 -0.083431 0.062933
0.032095 -0.124860 0.083489
0.034975 -0.109493 0.075888
0.029297 -0.045182 0.049432
0.032480 -0.031104 0.042437
0.029018 -0.072424 0.054294
0.036221 -0.059045 0.050356
0.049129 0.114212 -0.100757
0.054577 0.127897 -0.099133
0.053441 0.092898 -0.094767
0.058752 0.105309 -0.090638
0.052854 0.159039 -0.112177
0.064505 0.168885 -0.105859
0.048231 0.138172 -0.106592
0.058148 0.150500 -0.104782
-0.099681 -0.053264 0.045544
-0.105273 -0.047592 0.028107
-0.097586 -0.070046 0.055779
-0.104504 -0.065258 0.038147
-0.101878 -0.008932 0.024516
-0.104912 0.001240 0.009937
-0.100248 -0.033000 0.038580
-0.105126 -0.024890 0.022166
0.078236 0.165779 -0.026778
0.086676 0.174834 -0.032730
0.078796 0.146338 -0.024773
0.087283 0.155942 -0.034318
0.093414 0.215146 -0.032317
0.099981 0.222364 -0.047844
0.087571 0.204169 -0.043651
0.090520 0.213285 -0.047227
0.074666 -0.303931 0.001734
0.080469 -0.266972 0.027674
0.074759 -0.324055 -0.005032
0.082573 -0.282418 0.022235
0.065833 -0.243953 0.032065
0.072685 -0.230674 0.045135
0.071567 -0.277450 0.013100
0.076019 -0.252544 0.038297
-0.068395 0.008565 -0.099186
-0.058700 0.022928 -0.104574
-0.071113 -0.012682 -0.101581
-0.060112 -0.000177 -0.107006
-0.061593 0.054933 -0.087872
-0.054543 0.072094 -0.088625
-0.064438 0.033025 -0.093703
-0.054793 0.047209 -0.097012
0.083410 0.142049 -0.067322
0.081623 0.154219 -0.076815
0.080759 0.123015 -0.070349
0.078955 0.137749 -0.077321
0.096019 0.191256 -0.058643
0.102882 0.198484 -0.069140
0.092346 0.178327 -0.072611
0.100915 0.186287 -0.077256
-0.084486 -0.169094 0.056789
-0.080827 -0.161163 0.041711
-0.074707 -0.191005 0.071636
-0.072967 -0.180502 0.056602
-0.096008 -0.132502 0.035972
-0.091474 -0.128294 0.020088
-0.087836 -0.147830 0.042426
-0.085629 -0.141878 0.026516
0.031166 -0.181016 0.108447
0.031511 -0.167457 0.101596
0.032704 -0.211861 0.114920
0.030391 -0.196335 0.111646
0.024153 -0.126441 0.068554
0.025205 -0.112686 0.062099
0.027955 -0.153822 0.090430
0.026976 -0.139421 0.082531
-0.049920 -0.013392 -0.107613
-0.038563 -0.000288 -0.112627
-0.048513 -0.033696 -0.106980
-0.036993 -0.021507 -0.110662
-0.045339 0.031233 -0.098744
-0.036662 0.046437 -0.098892
-0.048012 0.009655 -0.104561
-0.037110 0.022010 -0.108026
0.166922 0.106680 -0.050229
0.164667 0.117280 -0.069551
0.188160 0.085056 -0.039636
0.185471 0.093336 -0.058951
0.176421 0.132090 -0.052179
0.186653 0.150487 -0.050931
0.193573 0.110615 -0.042696
0.199068 0.128390 -0.050051
0.055090 0.135009 0.012435
0.060341 0.145767 0.004911
0.054373 0.107143 0.014455
0.059041 0.121719 0.009527
0.045061 0.195026 0.015731
0.052715 0.207009 0.007713
0.044828 0.176468 0.015525
0.054631 0.185956 0.007223
-0.063265 -0.461450 0.056209
-0.042588 -0.453920 0.041312
-0.060108 -0.476194 0.073138
-0.047993 -0.470292 0.056234
-0.058009 -0.435666 0.024798
-0.058081 -0.405702 0.039263
-0.059907 -0.447342 0.045050
-0.052404 -0.427828 0.038955
-0.080166 0.064528 -0.077758
-0.069870 0.077524 -0.084879
-0.082988 0.044337 -0.080181
-0.074209 0.057970 -0.087917
-0.079859 0.103995 -0.079161
-0.073730 0.113681 -0.088231
-0.081422 0.085006 -0.079268
-0.069859 0.095912 -0.087876
-0.024177 0.284783 -0.095815
-0.006778 0.290930 -0.100078
-0.026593 0.270090 -0.101559
-0.012583 0.276988 -0.105622
-0.014736 0.321379 -0.084932
-0.000866 0.332062 -0.091746
-0.015625 0.301975 -0.089564
-0.001441 0.312028 -0.093498
-0.085386 0.139042 -0.078468
-0.080823 0.149391 -0.088694
-0.081702 0.119969 -0.075383
-0.077762 0.131244 -0.086449
-0.096001 0.184324 -0.082742
-0.090952 0.197421 -0.090796
-0.089266 0.163084 -0.083298
-0.085915 0.174238 -0.091459
0.072109 -0.087722 -0.049564
0.075365 -0.077278 -0.059955
0.070891 -0.111553 -0.026100
0.075418 -0.099007 -0.035875
0.075640 -0.033325 -0.086043
0.074266 -0.016353 -0.088205
0.079962 -0.051256 -0.075835
0.080357 -0.036152 -0.073721
-0.132284 0.163541 -0.001132
-0.128895 0.176000 -0.012513
-0.136834 0.135022 0.003976
-0.123324 0.150361 -0.009310
-0.142028 0.201372 -0.009265
-0.136567 0.213587 -0.024971
-0.137633 0.183343 -0.011988
-0.136423 0.195948 -0.025034
-0.064760 -0.389490 0.015704
-0.071949 -0.350571 0.045207
-0.062998 -0.407817 0.008818
-0.073626 -0.368292 0.036096
-0.072565 -0.348757 0.019956
-0.082892 -0.299146 0.045016
-0.065710 -0.372631 0.004135
-0.073841 -0.327081 0.038204
-0.089769 0.098152 -0.002508
-0.086783 0.112357 -0.008233
-0.088888 0.069794 -0.002427
-0.086671 0.084395 -0.007634
-0.096324 0.150223 -0.004038
-0.089518 0.162938 -0.012192
-0.090074 0.127537 -0.007477
-0.086953 0.140573 -0.010623
-0.057047 -0.264356 0.028553
-0.050441 -0.243619 0.039364
-0.058167 -0.295563 0.014037
-0.054462 -0.260168 0.038668
-0.058072 -0.205610 0.046708
-0.051526 -0.200003 0.034559
-0.062971 -0.233292 0.044627
-0.051347 -0.219788 0.044085
-0.028099 0.116929 -0.102440
-0.020437 0.131820 -0.102335
-0.025882 0.090689 -0.098439
-0.017141 0.105162 -0.098579
-0.034185 0.169575 -0.108233
-0.022894 0.181507 -0.112442
-0.028970 0.147249 -0.106358
-0.018649 0.162187 -0.107783
-0.024823 -0.063532 -0.090885
-0.011760 -0.058279 -0.102694
-0.019820 -0.079549 -0.076986
-0.009074 -0.068438 -0.086729
-0.023670 -0.027811 -0.111829
-0.012948 -0.015343 -0.112385
-0.023371 -0.047475 -0.105807
-0.011485 -0.037262 -0.110261
0.073325 0.064880 -0.068248
0.079209 0.076106 -0.065000
0.077492 0.040946 -0.069807
0.076881 0.055414 -0.073590
0.068405 0.101803 -0.077827
0.074169 0.113279 -0.074759
0.068579 0.081391 -0.075617
0.077236 0.093162 -0.068334
-0.111224 -0.016792 0.008960
-0.114030 -0.008000 -0.005808
-0.111796 -0.041872 0.020562
-0.112044 -0.033174 0.004556
-0.102461 0.029828 -0.002955
-0.105890 0.040724 -0.018996
-0.107640 0.011507 -0.000973
-0.108821 0.021515 -0.015308
0.022693 -0.021325 -0.119663
0.033042 -0.008476 -0.116453
0.025383 -0.041479 -0.114006
0.033394 -0.027574 -0.114613
0.017045 0.020917 -0.113220
0.029392 0.033694 -0.114078
0.017434 -0.001070 -0.120474
0.029884 0.011449 -0.116102
-0.043375 -0.454533 -0.009082
-0.042698 -0.444632 -0.024897
-0.053108 -0.461372 0.024031
-0.043923 -0.450328 0.009079
-0.033360 -0.374267 -0.017913
-0.030079 -0.319875 0.009151
-0.030214 -0.399143 -0.030138
-0.027073 -0.342348 0.002110
-0.048438 0.089163 -0.094746
-0.037677 0.102008 -0.098116
-0.046649 0.061898 -0.096486
-0.037200 0.076464 -0.095063
-0.050782 0.148968 -0.100697
-0.043459 0.162497 -0.104746
-0.044615 0.119692 -0.095994
-0.039300 0.134279 -0.102518
-0.027659 0.030464 0.038478
-0.015469 0.041316 0.042345
-0.028070 0.005021 0.037834
-0.018293 0.019918 0.038548
-0.019528 0.079947 0.046429
-0.007726 0.091280 0.045637
-0.024011 0.056353 0.043798
-0.010272 0.064416 0.046240
0.079085 -0.059682 0.052359
0.084875 -0.049572 0.042301
0.078066 -0.089382 0.073976
0.080016 -0.074170 0.063279
0.072338 -0.010947 0.025098
0.075982 -0.000740 0.014662
0.075637 -0.036935 0.039304
0.080481 -0.024828 0.028713
0.067842 0.162869 -0.099176
0.074033 0.174789 -0.095318
0.075086 0.144835 -0.090599
0.078900 0.158305 -0.091225
0.084041 0.213025 -0.100899
0.101750 0.218158 -0.099746
0.080736 0.195090 -0.103702
0.091182 0.205813 -0.106361
-0.087088 -0.082692 0.079022
-0.091814 -0.071174 0.068128
-0.088734 -0.106991 0.096274
-0.096267 -0.095877 0.082240
-0.084658 -0.025616 0.047473
-0.089685 -0.014437 0.036045
-0.087302 -0.054250 0.062669
-0.090678 -0.041704 0.050604
0.090274 -0.120937 0.015947
0.090401 -0.107687 0.006601
0.091990 -0.140188 0.040431
0.092712 -0.128952 0.030488
0.093031 -0.072883 -0.026861
0.097263 -0.058399 -0.030174
0.092905 -0.097685 -0.008635
0.095429 -0.082638 -0.016682
0.029225 0.233455 -0.128004
0.044495 0.245618 -0.128361
0.027921 0.216661 -0.126720
0.042817 0.227341 -0.128409
0.061092 0.254833 -0.124073
0.077182 0.262899 -0.118804
0.059375 0.237218 -0.128044
0.075556 0.243884 -0.122499
-0.103277 -0.097137 0.012949
-0.099575 -0.093356 -0.005130
-0.099533 -0.113252 0.022004
-0.095224 -0.111263 0.005848
-0.109780 -0.060496 -0.010566
-0.107543 -0.056301 -0.028394
-0.106149 -0.081258 0.002970
-0.103733 -0.076004 -0.015400
0.047611 -0.289076 -0.004348
0.054465 -0.258172 0.023129
0.046566 -0.309905 -0.014289
0.054441 -0.273602 0.009887
0.027611 -0.208210 0.039901
0.026173 -0.195595 0.029177
0.029966 -0.236572 0.042245
0.032601 -0.223313 0.039874
0.004608 -0.121919 0.051952
0.011385 -0.110497 0.042643
0.010300 -0.137609 0.060230
0.015792 -0.130509 0.047938
-0.012977 -0.079525 0.023216
-0.005117 -0.066148 0.015798
-0.005777 -0.095422 0.031936
0.004424 -0.084349 0.026893
0.053399 -0.309858 0.061153
0.054857 -0.277395 0.090028
0.054351 -0.328216 0.047542
0.050638 -0.292968 0.071787
0.048929 -0.245588 0.117722
0.048037 -0.231622 0.125507
0.046384 -0.272550 0.082662
0.043932 -0.258292 0.101545
0.046576 -0.068338 0.060420
0.050440 -0.053382 0.051159
0.045522 -0.096299 0.074423
0.050309 -0.084371 0.066336
0.034306 -0.017265 0.035957
0.036733 -0.003155 0.028835
0.045390 -0.039256 0.044963
0.048348 -0.026479 0.036706
-0.050339 -0.323481 0.067276
-0.061576 -0.293100 0.092965
-0.052975 -0.338551 0.056117
-0.062573 -0.313632 0.078939
-0.054183 -0.264959 0.112861
-0.059996 -0.248049 0.120269
-0.048846 -0.299989 0.080522
-0.057445 -0.276681 0.102341
0.095991 -0.016695 -0.051359
0.092381 -0.002993 -0.056815
0.098322 -0.042969 -0.035118
0.096666 -0.029318 -0.042714
0.089627 0.011628 -0.061759
0.084866 0.026117 -0.066439
0.095344 -0.001779 -0.041773
0.093729 0.012275 -0.048939
-0.034487 -0.366163 0.013658
-0.031969 -0.339053 0.047514
-0.033551 -0.384692 0.004390
-0.029326 -0.354574 0.030837
-0.024465 -0.338844 0.033078
-0.024779 -0.305274 0.065389
-0.030056 -0.349812 0.015255
-0.030192 -0.322789 0.053159
-0.089573 -0.127455 0.096051
-0.095479 -0.125028 0.076908
-0.085335 -0.149868 0.104912
-0.092126 -0.141633 0.088029
-0.097939 -0.090600 0.066151
-0.102419 -0.086747 0.051414
-0.093344 -0.111219 0.079878
-0.097695 -0.106057 0.064141
0.079123 0.040363 -0.053592
0.080746 0.053096 -0.058017
0.088087 0.025701 -0.045558
0.091640 0.037196 -0.048024
0.079966 0.074999 -0.044167
0.082375 0.085194 -0.053876
0.078313 0.057394 -0.041324
0.077700 0.068050 -0.053944
-0.052815 0.328763 -0.027111
-0.041019 0.338816 -0.034418
-0.043446 0.311589 -0.018934
-0.037628 0.322356 -0.022476
-0.044231 0.390175 -0.016492
-0.042247 0.403957 -0.027274
-0.046485 0.372191 -0.018674
-0.043144 0.383445 -0.034777
0.065089 0.134913 -0.095808
0.065165 0.149729 -0.094236
0.067501 0.115560 -0.089292
0.073074 0.126953 -0.085319
0.066142 0.190331 -0.115913
0.075642 0.201272 -0.114010
0.062900 0.176348 -0.109971
0.075924 0.183726 -0.107059
0.038711 -0.284761 0.052548
0.030131 -0.260811 0.079759
0.031472 -0.305813 0.047462
0.033745 -0.271234 0.071143
0.020707 -0.207248 0.095993
0.020554 -0.195731 0.086735
0.025925 -0.229050 0.096926
0.025818 -0.216340 0.094294
-0.006824 -0.141388 0.020786
-0.010347 -0.129495 0.010263
-0.009667 -0.163493 0.043036
-0.004791 -0.152671 0.031366
-0.020406 -0.096489 -0.028038
-0.007938 -0.082481 -0.036747
-0.011972 -0.107176 -0.012566
-0.006503 -0.091699 -0.022681
0.001583 -0.128800 0.031834
0.005116 -0.115016 0.018745
0.002673 -0.152687 0.053751
0.003568 -0.139159 0.039952
-0.016540 -0.081298 -0.004281
-0.009060 -0.071384 -0.015915
-0.010814 -0.087212 0.005828
-0.004401 -0.072742 0.000266
0.090423 0.230551 -0.041749
0.096702 0.239215 -0.058519
0.084701 0.211245 -0.060790
0.091183 0.223345 -0.062449
0.104836 0.245123 -0.041811
0.112185 0.255122 -0.058473
0.108434 0.226935 -0.050945
0.114749 0.238437 -0.055641
-0.071550 -0.016835 0.046576
-0.064985 -0.004544 0.041750
-0.065220 -0.042455 0.066120
-0.064623 -0.029107 0.056129
-0.063068 0.031531 0.027123
-0.053783 0.045849 0.027406
-0.065312 0.007469 0.031964
-0.054418 0.019104 0.031898
-0.001831 0.236524 -0.120623
0.012679 0.246498 -0.124953
-0.001769 0.218946 -0.122627
0.013646 0.225827 -0.126557
-0.000621 0.276599 -0.113009
0.014478 0.281639 -0.115275
-0.002896 0.256927 -0.116319
0.011693 0.266255 -0.120218
0.000734 -0.109391 -0.018135
0.003381 -0.095606 -0.029129
0.003341 -0.127033 0.000938
0.006092 -0.115274 -0.008353
-0.022867 -0.079230 -0.059257
-0.012983 -0.067304 -0.071821
-0.016223 -0.077785 -0.042208
-0.003543 -0.069951 -0.054718
-0.156286 0.126523 0.027917
-0.152063 0.136804 0.012027
-0.151886 0.109953 0.043645
-0.143176 0.120375 0.025469
-0.145961 0.170092 0.017100
-0.145687 0.178150 -0.001058
-0.146763 0.147185 0.031168
-0.143727 0.152995 0.010275
0.055484 -0.416840 -0.042741
0.064619 -0.370663 -0.018816
0.056661 -0.428475 -0.025681
0.060685 -0.396547 -0.008946
0.073474 -0.342531 -0.013382
0.081126 -0.297143 0.015111
0.076647 -0.359111 -0.015189
0.083163 -0.314545 0.008444
0.037535 0.023883 -0.107072
0.045914 0.039014 -0.107823
0.042328 0.001407 -0.112666
0.049874 0.016391 -0.110403
0.020582 0.065457 -0.104376
0.027708 0.079377 -0.105474
0.024499 0.044504 -0.104427
0.035074 0.054858 -0.105938
-0.039622 -0.293094 0.044830
-0.043104 -0.264753 0.066753
-0.039473 -0.312124 0.025757
-0.046611 -0.278709 0.054632
-0.039252 -0.223837 0.097129
-0.040849 -0.209649 0.086028
-0.040557 -0.254127 0.084176
-0.039323 -0.240634 0.093845
0.102796 -0.048331 0.018257
0.107601 -0.039768 0.008752
0.103449 -0.072500 0.030447
0.106461 -0.064119 0.019877
0.096778 -0.015960 -0.004640
0.103464 -0.005200 -0.015657
0.098919 -0.031675 0.004616
0.106655 -0.022025 -0.004273
-0.085033 0.211133 -0.095797
-0.076047 0.223177 -0.103308
-0.078465 0.192035 -0.096420
-0.070686 0.205923 -0.103188
-0.092473 0.244781 -0.088370
-0.078259 0.255979 -0.094447
-0.091590 0.226651 -0.091656
-0.079910 0.238889 -0.100497
-0.043974 -0.089310 -0.060463
-0.035527 -0.080043 -0.074552
-0.036364 -0.101998 -0.037655
-0.031873 -0.091936 -0.051659
-0.050615 -0.054677 -0.097803
-0.038184 -0.045029 -0.106064
-0.047582 -0.073633 -0.082227
-0.037874 -0.065648 -0.095290
-0.046590 -0.385271 0.004794
-0.048722 -0.348011 0.036215
-0.047069 -0.409069 -0.004365
-0.048319 -0.369886 0.014895
-0.050291 -0.349050 0.006218
-0.053415 -0.302150 0.034508
-0.048840 -0.369379 -0.005323
-0.050811 -0.326104 0.016592
-0.036633 0.354638 -0.067563
-0.033554 0.369932 -0.079517
-0.032797 0.332803 -0.069866
-0.022594 0.348539 -0.082198
-0.040459 0.401035 -0.066153
-0.032839 0.412091 -0.077586
-0.039728 0.375162 -0.062173
-0.032772 0.388094 -0.071225
0.086572 -0.266485 0.049394
0.078622 -0.250628 0.066998
0.085195 -0.299151 0.035149
0.077708 -0.272616 0.057388
0.076989 -0.196793 0.097988
0.081351 -0.187117 0.086355
0.072761 -0.231921 0.105270
0.075464 -0.214037 0.103524
-0.101624 0.054270 -0.033812
-0.099948 0.067800 -0.046387
-0.104535 0.038865 -0.038170
-0.104344 0.049998 -0.049699
-0.098547 0.097523 -0.033638
-0.098340 0.109334 -0.045295
-0.098636 0.076866 -0.033139
-0.097024 0.088117 -0.045749
-0.072782 -0.099985 0.100544
-0.078191 -0.092294 0.087969
-0.068095 -0.128038 0.114979
-0.074723 -0.118745 0.101587
-0.077449 -0.053905 0.070065
-0.078920 -0.038208 0.058815
-0.072306 -0.077110 0.089430
-0.077797 -0.066741 0.077008
-0.049574 0.002675 0.037839
-0.037961 0.015841 0.035126
-0.048699 -0.019993 0.049381
-0.038691 -0.008612 0.043877
-0.040849 0.058491 0.037516
-0.030950 0.070952 0.040626
-0.043608 0.033540 0.033917
-0.034434 0.046754 0.036924
-0.022887 -0.180109 0.132644
-0.026053 -0.162749 0.125669
-0.029322 -0.208710 0.139238
-0.027504 -0.195106 0.138941
-0.023538 -0.117669 0.101178
-0.027511 -0.106686 0.089750
-0.023332 -0.148307 0.112412
-0.022780 -0.132771 0.098763
-0.081625 -0.471189 0.023076
-0.076414 -0.454673 0.008668
-0.074227 -0.482075 0.038326
-0.067906 -0.473068 0.023561
-0.053982 -0.397883 -0.026476
-0.055033 -0.330256 0.001301
-0.054493 -0.414233 -0.041309
-0.053780 -0.358483 -0.018118
-0.099287 -0.073107 -0.033962
-0.094163 -0.067533 -0.050963
-0.094735 -0.089550 -0.021000
-0.089894 -0.083189 -0.037837
-0.104454 -0.035337 -0.056586
-0.100007 -0.028721 -0.072555
-0.102691 -0.053416 -0.047417
-0.095965 -0.047827 -0.064197
-0.117267 0.227028 -0.069533
-0.105109 0.239451 -0.079362
-0.110584 0.213804 -0.066419
-0.102586 0.224260 -0.079877
-0.120847 0.257354 -0.058972
-0.110757 0.270817 -0.068443
-0.120845 0.240945 -0.063865
-0.112800 0.253409 -0.071040
-0.031611 -0.292170 0.078070
-0.037141 -0.265788 0.098842
-0.037745 -0.311560 0.064774
-0.038143 -0.283041 0.090558
-0.034332 -0.230937 0.127234
-0.034496 -0.221016 0.134335
-0.030722 -0.252449 0.105614
-0.039661 -0.242845 0.118394
0.013733 -0.159894 0.066262
0.018075 -0.150768 0.053005
0.015347 -0.184448 0.080179
0.018425 -0.176821 0.069489
-0.013253 -0.100872 0.019143
-0.001233 -0.090043 0.014468
-0.010116 -0.119827 0.037918
0.000085 -0.109300 0.028534
0.039440 -0.472268 -0.016692
0.034689 -0.468546 -0.032895
0.054830 -0.476440 0.020062
0.055674 -0.471907 0.002335
0.026083 -0.452744 -0.059882
0.028732 -0.408617 -0.036635
0.039317 -0.454178 -0.029791
0.038491 -0.432748 -0.022347
0.066364 -0.191305 0.039875
0.067017 -0.177230 0.031614
0.063511 -0.216652 0.054128
0.063741 -0.201096 0.048125
0.071644 -0.137184 -0.001819
0.074129 -0.124364 -0.011412
0.068502 -0.161613 0.020521
0.073528 -0.148469 0.011291
-0.106959 0.002399 -0.063372
-0.100889 0.012176 -0.076830
-0.105452 -0.016623 -0.062145
-0.099083 -0.008308 -0.075986
-0.099096 0.043226 -0.063155
-0.093490 0.055740 -0.072377
-0.102833 0.024231 -0.064812
-0.096391 0.036042 -0.077518
-0.143419 -0.058489 0.194250
-0.150948 -0.062138 0.170939
-0.135288 -0.073602 0.208064
-0.143745 -0.071477 0.188068
-0.123332 -0.022271 0.174328
-0.125342 -0.023548 0.153513
-0.103096 -0.036143 0.183822
-0.102661 -0.031505 0.162396
0.098172 0.204929 -0.057721
0.106851 0.213212 -0.067162
0.085163 0.192427 -0.076215
0.097848 0.201766 -0.082741
0.118261 0.200265 -0.049519
0.124531 0.217070 -0.059778
0.124196 0.179314 -0.058453
0.129459 0.195850 -0.062205
-0.056650 0.229619 0.005796
-0.042504 0.240402 0.001432
-0.056889 0.211645 0.008404
-0.041495 0.221801 0.006128
-0.054899 0.289696 -0.026061
-0.043050 0.300893 -0.031893
-0.052324 0.269699 -0.014238
-0.038073 0.280381 -0.022427
-0.046224 -0.472121 -0.002595
-0.031556 -0.463866 -0.020357
-0.046229 -0.482133 0.011169
-0.033096 -0.474018 0.000312
-0.034041 -0.438286 -0.049458
-0.038706 -0.388133 -0.026327
-0.032032 -0.435028 -0.011929
-0.031551 -0.418027 -0.016447
-0.165031 -0.061414 0.177630
-0.168731 -0.063479 0.155553
-0.157968 -0.080467 0.200127
-0.166247 -0.076142 0.177872
-0.160248 -0.034543 0.157163
-0.155432 -0.036363 0.133940
-0.151076 -0.046168 0.176460
-0.155591 -0.053366 0.153870
0.082089 -0.206394 0.086816
0.081173 -0.193599 0.078768
0.082181 -0.238259 0.077161
0.079940 -0.219762 0.086444
0.079885 -0.166549 0.034017
0.088214 -0.155666 0.026766
0.078035 -0.182643 0.052082
0.084544 -0.169148 0.043178
-0.024303 0.016071 -0.108659
-0.012988 0.030927 -0.107509
-0.025732 -0.006132 -0.113724
-0.013984 0.007879 -0.112202
-0.027592 0.060275 -0.098002
-0.017871 0.073509 -0.098941
-0.027231 0.033225 -0.102408
-0.018588 0.048584 -0.101073
-0.105462 0.161707 -0.022194
-0.105560 0.171572 -0.031661
-0.101561 0.143770 -0.017809
-0.100761 0.152910 -0.031184
-0.121989 0.197140 -0.017241
-0.119909 0.212834 -0.026358
-0.114274 0.179985 -0.019849
-0.113132 0.193583 -0.031097
0.028845 -0.321085 0.034105
0.029514 -0.284347 0.064072
0.027538 -0.338729 0.022091
0.034953 -0.303953 0.058346
0.022232 -0.240949 0.080250
0.020984 -0.227251 0.081079
0.026184 -0.274607 0.052358
0.022934 -0.252744 0.070560
0.150042 0.129277 -0.085368
0.151389 0.149362 -0.097598
0.177756 0.103344 -0.075330
0.170275 0.124910 -0.090359
0.169981 0.141007 -0.094685
0.164685 0.165570 -0.092711
0.189956 0.120009 -0.081029
0.185653 0.143079 -0.083526
-0.001664 0.043500 -0.104256
0.008680 0.056870 -0.105395
-0.001430 0.021803 -0.113169
0.008015 0.034471 -0.111459
-0.007509 0.087420 -0.101111
0.001888 0.102214 -0.102054
-0.006304 0.061305 -0.101621
0.003178 0.075295 -0.101325
0.027688 -0.402272 -0.020061
0.038945 -0.363168 0.011891
0.028816 -0.420717 -0.021866
0.039814 -0.381540 0.011145
0.029339 -0.360194 -0.031748
0.032514 -0.299619 -0.007867
0.031037 -0.386775 -0.040941
0.030985 -0.321460 -0.015452
0.079968 0.186762 -0.092323
0.090350 0.195799 -0.093118
0.082975 0.169303 -0.084135
0.090620 0.180735 -0.090622
0.075156 0.228436 -0.114097
0.084758 0.238289 -0.111240
0.069927 0.213826 -0.116520
0.084701 0.217872 -0.112097
0.054853 -0.073394 -0.085072
0.057665 -0.057046 -0.091441
0.059093 -0.088380 -0.060659
0.064937 -0.076454 -0.070641
0.044969 -0.028751 -0.110353
0.049001 -0.011365 -0.110377
0.047642 -0.052399 -0.103566
0.053448 -0.034801 -0.105208
-0.069411 -0.268856 0.071113
-0.069949 -0.251589 0.078731
-0.068794 -0.286540 0.046234
-0.071932 -0.265333 0.055653
-0.073732 -0.211696 0.070941
-0.064734 -0.201501 0.062823
-0.069932 -0.237734 0.068472
-0.061399 -0.225136 0.062599
0.094070 -0.033352 0.027666
0.096062 -0.023235 0.015828
0.095223 -0.061795 0.041826
0.095719 -0.050876 0.029656
0.080544 0.009524 -0.001873
0.088694 0.019093 -0.013370
0.087492 -0.011509 0.013405
0.092695 -0.001521 0.001942
-0.086769 -0.273317 0.052538
-0.079469 -0.250791 0.052689
-0.071402 -0.304827 0.023555
-0.069079 -0.269385 0.039585
-0.079152 -0.237023 0.091365
-0.074133 -0.222941 0.082937
-0.083966 -0.257235 0.072386
-0.082767 -0.240176 0.069617
0.066461 -0.334758 0.026571
0.071157 -0.300381 0.053958
0.063333 -0.355803 0.015428
0.066627 -0.313238 0.042291
0.077106 -0.288628 0.033617
0.073200 -0.261414 0.058740
0.074730 -0.310652 0.023639
0.079003 -0.278533 0.045116
0.047292 0.301892 -0.102999
0.070986 0.300199 -0.097589
0.036750 0.290944 -0.113135
0.056796 0.293388 -0.110737
0.081872 0.304166 -0.086215
0.096567 0.300430 -0.075824
0.098121 0.285219 -0.095781
0.109757 0.289398 -0.086710
-0.048439 0.400021 -0.003404
-0.049900 0.412036 -0.015404
-0.044259 0.368432 0.000834
-0.044044 0.385640 -0.000562
-0.047730 0.449872 -0.018158
-0.042713 0.458533 -0.031299
-0.053839 0.426639 -0.022305
-0.053266 0.436346 -0.035966
0.133957 0.155295 -0.077871
0.132197 0.164836 -0.092474
0.153684 0.129619 -0.063443
0.152830 0.146175 -0.078397
0.168134 0.167486 -0.077275
0.166009 0.189845 -0.071649
0.174637 0.153127 -0.064384
0.184740 0.167420 -0.067029
-0.116832 0.286138 -0.044146
-0.102022 0.295603 -0.050039
-0.124086 0.269616 -0.048592
-0.109107 0.281973 -0.058449
-0.079710 0.309958 -0.039314
-0.059985 0.316395 -0.045597
-0.088230 0.307391 -0.047902
-0.070499 0.310914 -0.053267
-0.010942 0.144548 -0.108695
-0.000718 0.157210 -0.110662
-0.007622 0.119568 -0.104543
0.001802 0.132210 -0.107941
-0.009724 0.193471 -0.117674
0.003607 0.204657 -0.121156
-0.006803 0.173245 -0.114785
0.004423 0.186381 -0.118066
0.028031 0.351864 -0.018935
0.031939 0.363405 -0.030932
0.025298 0.335439 -0.033391
0.025090 0.351594 -0.040462
0.028315 0.416429 -0.020731
0.034362 0.421084 -0.034129
0.033194 0.391236 -0.031675
0.031597 0.403910 -0.042093
0.060520 -0.376055 0.017444
0.070491 -0.345912 0.038965
0.059341 -0.399543 0.006097
0.069413 -0.362930 0.027067
0.077354 -0.347613 0.021751
0.082214 -0.311208 0.052961
0.070874 -0.358796 0.003559
0.084657 -0.331005 0.034246
0.062990 -0.410990 -0.019700
0.075885 -0.369791 0.006567
0.052393 -0.424785 -0.005427
0.065072 -0.386374 0.005601
0.067231 -0.378506 -0.005747
0.078249 -0.330179 0.015060
0.064691 -0.392695 -0.021989
0.078172 -0.345112 0.003651
-0.029521 0.207645 0.026483
-0.018708 0.217975 0.020150
-0.027763 0.189979 0.027838
-0.017298 0.199765 0.024278
-0.035661 0.246839 0.015184
-0.027444 0.256930 0.007910
-0.032978 0.228160 0.020487
-0.022755 0.239047 0.016164
-0.084610 -0.188418 0.090033
-0.085972 -0.179885 0.074140
-0.081329 -0.210108 0.094946
-0.080757 -0.200613 0.083076
-0.093863 -0.153498 0.077204
-0.092692 -0.149890 0.057389
-0.086628 -0.170055 0.086174
-0.088626 -0.164094 0.069402
-0.014107 0.271937 0.003590
-0.003672 0.284305 -0.000577
-0.010878 0.257613 0.007678
-0.000379 0.267702 0.003613
-0.014273 0.330730 0.006193
-0.001532 0.343378 0.010767
-0.008611 0.310481 0.004174
0.002940 0.323891 0.007270
0.073602 -0.209163 0.057579
0.074045 -0.194546 0.055896
0.076464 -0.229648 0.074395
0.076801 -0.214579 0.072289
0.078653 -0.146733 0.031757
0.081691 -0.135134 0.020623
0.074298 -0.164128 0.052425
0.081263 -0.150368 0.045363
-0.017344 0.404759 0.034615
-0.009310 0.418415 0.027606
-0.010432 0.381955 0.033957
-0.001129 0.392239 0.032042
-0.011270 0.470207 -0.004690
0.001636 0.472836 -0.017512
-0.009837 0.451965 0.011098
0.003335 0.459577 -0.000484
-0.050801 -0.344749 -0.010610
-0.045593 -0.282901 0.014900
-0.052791 -0.375436 -0.024750
-0.048229 -0.309450 0.003734
-0.042642 -0.218116 0.056570
-0.034130 -0.204702 0.048428
-0.037433 -0.251004 0.047044
-0.034409 -0.234602 0.058559
0.036426 -0.240542 0.109187
0.032964 -0.225134 0.109810
0.038305 -0.254507 0.089011
0.032340 -0.240305 0.092904
0.024625 -0.161855 0.077623
0.026487 -0.147057 0.068193
0.025065 -0.189415 0.099177
0.025149 -0.175500 0.088296
-0.099650 0.159500 -0.062631
-0.099223 0.171696 -0.074496
-0.093400 0.143916 -0.059920
-0.095596 0.152310 -0.075046
-0.113911 0.200114 -0.064202
-0.106332 0.212073 -0.079352
-0.108552 0.182935 -0.067568
-0.103290 0.195316 -0.076682
-0.094412 0.015858 0.013390
-0.088172 0.028898 0.007609
-0.086266 -0.001047 0.031174
-0.084240 0.008148 0.022386
-0.079892 0.075342 0.009778
-0.079210 0.091993 0.007969
-0.085316 0.043819 0.009170
-0.081892 0.057871 0.006012
0.101334 0.225997 -0.071796
0.114520 0.228316 -0.069460
0.088007 0.208541 -0.082201
0.099062 0.216797 -0.085152
0.116019 0.280521 -0.076204
0.121090 0.279210 -0.064912
0.120410 0.265702 -0.077701
0.127437 0.259039 -0.063589
0.060450 -0.231685 0.116894
0.057836 -0.214055 0.122575
0.062017 -0.259872 0.093276
0.061605 -0.243345 0.102816
0.053000 -0.163860 0.109668
0.055512 -0.146580 0.100247
0.055203 -0.193447 0.119933
0.054373 -0.178995 0.113625
0.020083 0.215911 0.016651
0.027974 0.227560 0.009784
0.021170 0.195665 0.020501
0.032810 0.206536 0.014005
0.013982 0.259428 0.002715
0.020811 0.271814 -0.003562
0.015594 0.239426 0.006217
0.024682 0.249776 0.000532
0.026374 -0.244960 0.055412
0.033922 -0.231987 0.061567
0.033886 -0.276243 0.023264
0.037969 -0.253027 0.043814
0.021588 -0.156291 0.031827
0.024258 -0.146116 0.017807
0.023718 -0.187976 0.056532
0.026953 -0.177036 0.037823
-0.078341 -0.296465 0.076354
-0.084019 -0.275957 0.080870
-0.078138 -0.317591 0.065401
-0.090489 -0.288077 0.067252
-0.075298 -0.249870 0.114677
-0.084418 -0.233707 0.115800
-0.074657 -0.270872 0.097781
-0.082208 -0.253740 0.097152
-0.140162 -0.029879 0.172382
-0.144443 -0.033979 0.150401
-0.123785 -0.049718 0.187588
-0.131624 -0.048588 0.163434
-0.144693 -0.016958 0.157797
-0.148052 -0.019793 0.136299
-0.113093 -0.035852 0.172071
-0.119098 -0.036336 0.145986
-0.079665 -0.092212 -0.046739
-0.073066 -0.082938 -0.060474
-0.072669 -0.110883 -0.024691
-0.066828 -0.100120 -0.039370
-0.089234 -0.054097 -0.073667
-0.083293 -0.046529 -0.087307
-0.087022 -0.072569 -0.061112
-0.079150 -0.065302 -0.075311
0.084159 0.228229 -0.016695
0.090965 0.236347 -0.030117
0.082655 0.213010 -0.016859
0.083944 0.221034 -0.031766
0.080459 0.269675 -0.028876
0.088640 0.274496 -0.037565
0.084922 0.250979 -0.022317
0.095783 0.256891 -0.033103
-0.040917 0.440427 -0.080214
-0.027613 0.448038 -0.090173
-0.042972 0.417722 -0.084558
-0.030730 0.428607 -0.094590
-0.022238 0.474574 -0.058541
-0.005848 0.477522 -0.061313
-0.033362 0.461754 -0.071111
-0.021619 0.467747 -0.080197
0.092619 -0.038435 -0.057910
0.089955 -0.024900 -0.059867
0.093544 -0.061095 -0.042922
0.092381 -0.047958 -0.047291
0.079826 -0.005483 -0.082881
0.085101 0.008904 -0.075446
0.086209 -0.022333 -0.075632
0.088398 -0.008910 -0.069096
-0.139024 0.234053 0.006278
-0.139246 0.247016 -0.004100
-0.144293 0.198409 0.010211
-0.142034 0.214669 -0.001572
-0.113707 0.296819 -0.019520
-0.098615 0.301439 -0.029720
-0.117282 0.288268 0.002878
-0.102183 0.293855 -0.006870
0.210846 0.067919 -0.024632
0.209838 0.072132 -0.043195
0.229662 0.041337 -0.015067
0.236757 0.046818 -0.035783
0.216934 0.100073 -0.028656
0.219524 0.117183 -0.047013
0.232782 0.077714 -0.023511
0.235639 0.087280 -0.045869
0.110063 0.194465 -0.072301
0.119799 0.206504 -0.075705
0.114457 0.170600 -0.073884
0.125166 0.186204 -0.079929
0.141326 0.180864 -0.056029
0.143687 0.200191 -0.059376
0.154374 0.155986 -0.059277
0.155924 0.177087 -0.059501
0.062423 -0.044615 -0.098119
0.066344 -0.028890 -0.097001
0.069155 -0.063470 -0.081070
0.071065 -0.047087 -0.084831
0.058816 0.004181 -0.104386
0.067365 0.018209 -0.097836
0.062440 -0.016203 -0.101567
0.069489 -0.003050 -0.097341
0.078919 -0.236503 0.059247
0.082369 -0.223349 0.060877
0.084227 -0.258513 0.045391
0.082926 -0.245489 0.053983
0.083878 -0.179271 0.066004
0.089351 -0.170360 0.056290
0.082800 -0.206852 0.068768
0.086099 -0.191992 0.068132
0.048000 -0.224915 0.048289
0.050155 -0.209817 0.041630
0.053122 -0.252567 0.039105
0.055399 -0.239137 0.050089
0.040212 -0.160451 0.004420
0.040602 -0.146641 -0.009410
0.040228 -0.192793 0.032921
0.036896 -0.179983 0.019815
0.075256 -0.243071 0.088850
0.078796 -0.227462 0.094643
0.084605 -0.263313 0.071250
0.082423 -0.253143 0.080348
0.097824 -0.090937 0.049581
0.099342 -0.079075 0.038995
0.096757 -0.118474 0.058933
0.099112 -0.106207 0.046604
-0.100117 -0.120413 0.058522
-0.099482 -0.117632 0.039309
-0.096158 -0.137359 0.067596
-0.096039 -0.133510 0.051043
-0.106000 -0.083000 0.038374
-0.106166 -0.082466 0.020076
-0.102802 -0.102830 0.048789
-0.103254 -0.099759 0.031070
-0.064443 0.124831 -0.091855
-0.057641 0.138056 -0.098880
-0.059937 0.104093 -0.092893
-0.053239 0.117200 -0.098820
-0.072700 0.174749 -0.096906
-0.065058 0.186957 -0.105446
-0.069939 0.155024 -0.095988
-0.060360 0.166305 -0.104318
0.022263 0.328028 -0.055386
0.027667 0.343332 -0.063652
0.019666 0.309301 -0.065124
0.028789 0.320233 -0.068678
0.016684 0.373768 -0.069802
0.020241 0.386840 -0.079288
0.007988 0.350993 -0.071471
0.021694 0.362562 -0.076846
0.077290 0.089493 -0.019937
0.074100 0.103854 -0.029354
0.080402 0.070040 -0.027905
0.078539 0.083201 -0.034596
0.082646 0.144702 -0.041285
0.089708 0.154237 -0.050427
0.079833 0.127520 -0.042388
0.084066 0.139299 -0.055130
-0.056050 0.203810 0.022861
-0.042496 0.215948 0.019077
-0.046158 0.185553 0.024996
-0.040245 0.198747 0.024265
-0.061198 0.271755 0.002668
-0.046022 0.279229 -0.004756
-0.061609 0.256297 0.003279
-0.043507 0.260061 0.001404
-0.012764 -0.088913 0.042031
-0.002793 -0.073434 0.034612
-0.007676 -0.108266 0.049921
0.004696 -0.096523 0.041942
-0.011834 -0.049601 0.050452
-0.001335 -0.036634 0.047803
-0.014176 -0.073220 0.046200
-0.001748 -0.059620 0.040519
0.030380 -0.363230 -0.001140
0.038574 -0.332291 0.029356
0.036060 -0.387281 -0.005622
0.041294 -0.351173 0.022459
0.026444 -0.336832 -0.013437
0.032935 -0.285948 0.006801
0.027380 -0.363224 -0.018127
0.033202 -0.310343 0.002196
-0.036842 0.113548 0.037228
-0.028688 0.124853 0.039743
-0.036973 0.085377 0.039426
-0.027153 0.097204 0.041202
-0.037693 0.163654 0.031812
-0.031414 0.177404 0.028680
-0.036074 0.139577 0.034071
-0.027388 0.152870 0.033249
-0.113011 -0.022268 -0.034320
-0.110345 -0.015422 -0.048611
-0.112485 -0.039345 -0.023216
-0.110015 -0.035205 -0.040484
-0.110620 0.024687 -0.034656
-0.108752 0.032660 -0.050511
-0.111525 0.001830 -0.039166
-0.110525 0.011813 -0.049956
-0.157392 0.029922 0.091961
-0.148952 0.036508 0.072980
-0.130696 0.021237 0.101009
-0.139654 0.024790 0.083781
-0.159765 0.055666 0.074500
-0.149323 0.060113 0.055463
-0.128778 0.044872 0.082166
-0.134324 0.049886 0.064954
0.099139 -0.096637 0.032606
0.099886 -0.085151 0.020265
0.091420 -0.131789 0.052931
0.091320 -0.117958 0.040231
0.102993 -0.044641 -0.003264
0.102862 -0.031397 -0.013891
0.100691 -0.071920 0.011104
0.104069 -0.057282 0.003477
0.040762 -0.092901 -0.061884
0.045897 -0.082852 -0.071776
0.044829 -0.110059 -0.037290
0.050276 -0.097814 -0.050231
0.028708 -0.059856 -0.101478
0.036318 -0.046162 -0.108101
0.033590 -0.076490 -0.085841
0.042107 -0.065035 -0.093680
0.085274 0.110586 -0.050360
0.082692 0.125312 -0.058379
0.077557 0.094351 -0.050081
0.077121 0.107023 -0.062071
0.083443 0.168826 -0.060821
0.087783 0.181167 -0.064990
0.085028 0.153740 -0.062545
0.090393 0.164392 -0.071800
0.034428 0.316556 -0.039078
0.037100 0.330155 -0.049985
0.033268 0.299009 -0.038557
0.043001 0.304428 -0.054273
0.033233 0.370064 -0.046139
0.032574 0.380892 -0.060189
0.035527 0.352462 -0.050241
0.031875 0.362552 -0.063568
-0.031179 0.292670 -0.010167
-0.022213 0.306811 -0.007954
-0.030057 0.272346 -0.002324
-0.021058 0.286053 -0.002248
-0.041190 0.354613 -0.018519
-0.032367 0.367812 -0.026739
-0.034065 0.330605 -0.011648
-0.035198 0.343182 -0.016127
0.033423 -0.428886 0.006379
0.049424 -0.396553 0.018917
0.049231 -0.440865 0.025176
0.050868 -0.427243 0.011588
0.030782 -0.429152 -0.045316
0.032951 -0.378887 -0.012897
0.028300 -0.440959 -0.033465
0.039905 -0.398514 0.002375
-0.032978 0.384195 0.022336
-0.025685 0.401004 0.023317
-0.028988 0.358465 0.025702
-0.020341 0.373712 0.030151
-0.038443 0.444771 0.001881
-0.023938 0.456894 0.001689
-0.032220 0.423148 0.016679
-0.023347 0.437920 0.016192
-0.052261 -0.474558 0.035784
-0.037179 -0.467997 0.018570
-0.055820 -0.486183 0.050712
-0.042182 -0.483450 0.030797
-0.030992 -0.411326 -0.042061
-0.033491 -0.362740 -0.016068
-0.026591 -0.428218 -0.036035
-0.024898 -0.385102 -0.014933
0.001130 -0.049654 -0.109565
0.010639 -0.036226 -0.113712
0.004232 -0.064638 -0.095266
0.014377 -0.056380 -0.106587
-0.003466 -0.003176 -0.114335
0.006433 0.009058 -0.114674
-0.002486 -0.026242 -0.113832
0.008374 -0.014000 -0.117283
0.072644 0.061953 -0.009338
0.071004 0.075273 -0.015209
0.072065 0.044076 -0.015757
0.072973 0.056820 -0.023911
0.066570 0.105836 0.002885
0.066850 0.119691 -0.007687
0.069485 0.085691 -0.002581
0.070435 0.099920 -0.011479
0.030499 0.272830 -0.123356
0.048573 0.280531 -0.119512
0.028885 0.253670 -0.126515
0.044280 0.264784 -0.126310
0.071174 0.286740 -0.110535
0.087562 0.291570 -0.103683
0.063785 0.272845 -0.119930
0.084660 0.273146 -0.110715
0.082383 -0.106425 -0.018008
0.086728 -0.092974 -0.025591
0.083626 -0.128137 0.004160
0.083270 -0.114596 -0.007123
0.082718 -0.066717 -0.060173
0.084521 -0.052566 -0.061873
0.085803 -0.084152 -0.039921
0.087323 -0.071993 -0.046728
-0.060711 -0.360838 0.038676
-0.069358 -0.332620 0.067011
-0.061472 -0.379137 0.026700
-0.066026 -0.347191 0.057858
-0.078015 -0.333695 0.050686
-0.084478 -0.300000 0.061277
-0.076726 -0.349205 0.033441
-0.085691 -0.314022 0.052245
0.037568 0.239445 0.003689
0.048795 0.248996 -0.005599
0.042775 0.219531 0.010125
0.050894 0.230731 0.000562
0.030733 0.280811 -0.013745
0.042456 0.288883 -0.021495
0.034687 0.259858 -0.003452
0.045863 0.269378 -0.011736
-0.112098 -0.051289 0.007303
-0.112732 -0.044378 -0.009716
-0.110891 -0.067859 0.023180
-0.109234 -0.066723 0.006385
-0.112898 0.001289 -0.014969
-0.112922 0.010314 -0.026881
-0.113259 -0.024614 -0.011431
-0.114431 -0.012893 -0.026569
-0.056459 0.199455 -0.108177
-0.046233 0.211287 -0.111077
-0.050089 0.179431 -0.105900
-0.040218 0.189395 -0.110883
-0.063147 0.238696 -0.103217
-0.050089 0.248486 -0.104333
-0.060097 0.219934 -0.106248
-0.048950 0.230642 -0.110926
-0.015971 0.128860 0.039578
-0.005315 0.141399 0.036735
-0.017428 0.106630 0.043677
-0.005979 0.115750 0.042615
-0.018019 0.170437 0.031592
-0.008923 0.185924 0.026993
-0.013214 0.151238 0.033788
-0.004718 0.164916 0.030190
-0.143332 0.025334 0.128619
-0.150944 0.031583 0.108997
-0.125062 0.008776 0.138402
-0.123714 0.015587 0.118587
-0.149552 0.048718 0.112965
-0.158246 0.052611 0.093254
-0.126690 0.036719 0.119900
-0.125264 0.041087 0.098242
0.059076 -0.485216 0.045370
0.065426 -0.477422 0.019854
0.046584 -0.476505 0.062194
0.060014 -0.466738 0.040617
0.041908 -0.476402 0.014194
0.040448 -0.467665 -0.005186
0.047138 -0.472093 0.049547
0.050939 -0.464055 0.028312
-0.048126 0.414768 -0.037218
-0.042946 0.420914 -0.052037
-0.042846 0.386152 -0.032488
-0.042091 0.397459 -0.047608
-0.043474 0.453537 -0.043129
-0.037738 0.464511 -0.055106
-0.046061 0.439039 -0.053775
-0.037038 0.447422 -0.067316
0.026219 -0.110395 -0.038467
0.029440 -0.097682 -0.050177
0.027182 -0.128572 -0.023532
0.032435 -0.121312 -0.033292
0.006525 -0.077480 -0.077814
0.018584 -0.070398 -0.090675
0.019155 -0.091882 -0.064171
0.026478 -0.080666 -0.074153
0.049439 -0.467007 -0.054647
0.046783 -0.447828 -0.065721
0.062925 -0.466627 -0.035152
0.058185 -0.456463 -0.047165
0.043073 -0.413825 -0.060915
0.044268 -0.355729 -0.032857
0.055056 -0.430907 -0.056837
0.056870 -0.391448 -0.039287
0.074375 -0.484785 0.036176
0.081793 -0.477460 0.010549
0.066176 -0.481020 0.056045
0.077538 -0.475434 0.016053
0.077796 -0.474326 -0.004657
0.074433 -0.468175 -0.020384
0.075880 -0.467220 0.034489
0.073253 -0.461083 0.006747
0.054745 -0.162933 0.008464
0.057026 -0.149074 0.000380
0.052126 -0.189483 0.031335
0.054420 -0.176616 0.019210
0.057960 -0.116565 -0.034847
0.062641 -0.101655 -0.042994
0.055437 -0.138676 -0.013271
0.059417 -0.126041 -0.020722
-0.055540 -0.115653 0.110650
-0.058917 -0.107796 0.095314
-0.049352 -0.139108 0.122235
-0.052063 -0.128083 0.108295
-0.059411 -0.072016 0.084668
-0.058377 -0.057121 0.077442
-0.053963 -0.097737 0.101913
-0.058385 -0.086722 0.090478
-0.076533 -0.466345 -0.012773
