ply
format ascii 1.0
element vertex 1682
property float x
property float y
property float z
end_header
0.027590 0.323904 -0.090733
0.009916 0.300375 -0.100666
0.028635 0.305235 -0.104763
0.049048 0.324249 -0.071699
0.071604 0.322076 -0.070476
0.042369 0.314952 -0.090502
0.058258 0.317363 -0.085059
-0.074055 -0.480211 0.062202
-0.064335 -0.469449 0.051285
-0.069477 -0.476984 0.082770
-0.064010 -0.469703 0.068256
-0.059520 -0.405772 -0.010163
-0.063163 -0.356960 0.006942
-0.053244 -0.420941 0.000185
-0.054219 -0.390697 0.001489
0.014176 0.315120 0.009042
0.023389 0.331044 0.006892
0.015035 0.294617 0.001099
0.026341 0.306819 0.001574
0.017238 0.371316 0.022169
0.024800 0.384868 0.013149
0.022764 0.350700 0.005275
0.022776 0.366919 0.001092
0.032231 -0.284879 0.034354
0.036576 -0.260247 0.067038
0.031095 -0.297835 0.018996
0.037502 -0.266341 0.050338
0.026170 -0.209950 0.068528
0.029485 -0.201835 0.054460
0.025343 -0.227567 0.065072
0.031712 -0.218709 0.055074
0.095631 0.010899 -0.019736
0.101522 0.019745 -0.028166
0.100900 -0.016370 -0.009957
0.101056 -0.004375 -0.019064
0.079979 0.036528 -0.023683
0.088089 0.046043 -0.032631
0.082702 0.022128 -0.011247
0.091600 0.029670 -0.020996
0.106247 0.261581 -0.099239
0.118996 0.265666 -0.094639
0.113258 0.233840 -0.101225
0.117858 0.251724 -0.092856
0.127434 0.219636 -0.089749
0.135398 0.227394 -0.078347
0.132010 0.189068 -0.095614
0.136182 0.206347 -0.087379
0.034160 -0.322549 0.013062
0.040950 -0.284458 0.045128
0.034166 -0.341646 0.004650
0.033094 -0.306432 0.031416
0.026863 -0.276264 0.012175
0.033276 -0.248359 0.031721
0.028618 -0.301203 -0.002070
0.036468 -0.261222 0.018096
-0.028966 -0.324516 0.001579
-0.023879 -0.270795 0.026001
-0.020683 -0.353815 -0.006548
-0.021504 -0.294972 0.012341
-0.010550 -0.235981 0.067934
0.004045 -0.224917 0.067504
-0.004415 -0.278276 0.030378
-0.000319 -0.255456 0.047814
0.076792 0.031206 -0.084093
0.079818 0.045282 -0.083037
0.080030 0.012761 -0.081351
0.088755 0.027651 -0.074743
0.062174 0.076964 -0.085477
0.070112 0.088553 -0.079669
0.069731 0.055964 -0.083467
0.073638 0.069214 -0.079145
-0.048596 0.089144 0.031506
-0.040045 0.102076 0.035353
-0.050760 0.065567 0.031399
-0.041227 0.077560 0.034089
-0.054867 0.140903 0.024388
-0.044335 0.150283 0.029965
-0.049684 0.116221 0.028240
-0.042826 0.130756 0.031789
-0.017028 -0.162793 0.042244
-0.015484 -0.153187 0.029305
-0.017629 -0.189490 0.062774
-0.018337 -0.177592 0.048595
-0.013692 -0.092816 -0.009584
-0.009609 -0.080894 -0.022453
-0.011541 -0.118111 0.007588
-0.012971 -0.105949 -0.001453
0.008775 0.337893 -0.067640
0.024472 0.345082 -0.066907
0.006618 0.319427 -0.075582
0.018913 0.331604 -0.078884
0.003652 0.391204 -0.072718
0.009057 0.400937 -0.082926
0.002486 0.363838 -0.075652
0.012238 0.379829 -0.071966
0.087347 0.297829 -0.037485
0.107299 0.298467 -0.041577
0.105030 0.273537 -0.037595
0.113193 0.281385 -0.046499
0.064980 0.315147 -0.056545
0.085222 0.315294 -0.063238
0.089155 0.311232 -0.047679
0.107660 0.306349 -0.057143
-0.013611 -0.182186 0.078997
-0.011612 -0.172247 0.064675
-0.011499 -0.212607 0.086359
-0.015795 -0.201070 0.075754
-0.012901 -0.132455 0.033932
-0.012051 -0.125592 0.022397
-0.007072 -0.154314 0.056682
-0.007021 -0.143846 0.043581
-0.047503 -0.167942 0.033814
-0.042657 -0.161427 0.017950
-0.049326 -0.183321 0.048791
-0.041566 -0.178462 0.031973
-0.057539 -0.128827 -0.006366
-0.053930 -0.119393 -0.018467
-0.053342 -0.149285 0.010922
-0.046593 -0.139891 -0.001797
0.098181 -0.309685 0.040947
0.092008 -0.278420 0.070019
0.081323 -0.323317 0.037274
0.088457 -0.291960 0.066493
0.085128 -0.256121 0.092359
0.086895 -0.240266 0.101406
0.099286 -0.286406 0.055491
0.090529 -0.270474 0.080635
0.077420 -0.183736 0.107629
0.080215 -0.167755 0.104337
0.077257 -0.211082 0.117805
0.077026 -0.195919 0.116460
0.078895 -0.120236 0.088163
0.081919 -0.104620 0.076912
0.077070 -0.152892 0.104490
0.077028 -0.138067 0.095477
0.137597 0.068406 -0.054749
0.143529 0.081926 -0.071850
0.154007 0.044491 -0.028546
0.158339 0.048725 -0.049932
0.149893 0.097309 -0.062788
0.158481 0.112379 -0.068867
0.162041 0.071715 -0.049505
0.167038 0.085737 -0.061401
-0.073361 -0.356459 0.021462
-0.078315 -0.312341 0.037149
-0.063550 -0.377827 0.001749
-0.070428 -0.331491 0.031145
-0.065860 -0.310047 0.041159
-0.069225 -0.283572 0.063110
-0.070146 -0.317499 0.024694
-0.072197 -0.286116 0.048974
-0.111272 0.189294 -0.014075
-0.105585 0.204518 -0.022379
-0.103966 0.170902 -0.011130
-0.097818 0.184273 -0.020500
-0.117998 0.231073 -0.005440
-0.108282 0.242687 -0.007570
-0.112302 0.213056 -0.010613
-0.105674 0.225337 -0.016560
-0.102458 0.205385 0.012572
-0.093852 0.219853 0.004928
-0.097641 0.186376 0.012024
-0.089426 0.202780 0.004876
-0.092494 0.256164 0.016582
-0.080077 0.263775 0.006321
-0.094185 0.234734 0.012226
-0.081058 0.246427 0.010813
0.036800 0.442393 -0.017686
0.040247 0.448005 -0.037390
0.042391 0.419191 -0.006256
0.044654 0.422172 -0.024464
0.009298 0.476854 -0.037130
0.020546 0.470548 -0.044970
0.017719 0.469770 -0.010279
0.023914 0.464203 -0.027966
-0.061537 -0.074475 -0.072554
-0.052805 -0.066283 -0.085269
-0.056638 -0.089687 -0.054255
-0.047272 -0.080066 -0.069497
-0.066278 -0.034194 -0.094883
-0.055426 -0.023371 -0.103825
-0.065764 -0.053812 -0.088793
-0.055553 -0.043072 -0.099924
0.066559 0.179749 0.005679
0.073652 0.190097 -0.007192
0.065590 0.162652 0.006442
0.072893 0.173556 -0.004511
0.067281 0.218995 0.006439
0.075368 0.227924 -0.003148
0.068756 0.197746 0.006949
0.074469 0.207622 -0.005672
0.036953 0.412279 -0.052521
0.032861 0.419741 -0.061942
0.040351 0.391310 -0.047072
0.034795 0.398801 -0.065704
0.029232 0.455377 -0.051265
0.023647 0.453026 -0.066493
0.035141 0.435531 -0.040120
0.030766 0.437627 -0.054594
-0.004893 0.435920 -0.093889
0.009886 0.443659 -0.088631
0.000072 0.409667 -0.084056
0.004687 0.422807 -0.091744
-0.002052 0.476489 -0.071164
0.013177 0.472026 -0.063285
-0.006885 0.458343 -0.089022
0.014404 0.460055 -0.077806
0.086610 -0.152009 0.080064
0.094298 -0.138504 0.074800
0.086287 -0.173725 0.092246
0.091583 -0.161076 0.089165
0.093613 -0.093711 0.059851
0.097817 -0.081964 0.049550
0.091325 -0.123042 0.076208
0.095939 -0.111167 0.064666
-0.032521 -0.140816 0.006555
-0.026895 -0.128248 -0.003190
-0.030275 -0.163118 0.029270
-0.026887 -0.149300 0.017493
-0.047146 -0.108356 -0.031525
-0.041915 -0.097465 -0.044758
-0.036092 -0.123024 -0.013746
-0.029908 -0.112045 -0.024049
0.014620 0.117798 -0.100934
0.024082 0.130156 -0.103366
0.017504 0.090986 -0.099584
0.025042 0.103941 -0.099852
0.013004 0.170087 -0.112463
0.022918 0.184272 -0.117405
0.016976 0.147741 -0.108687
0.028090 0.158051 -0.111828
-0.004325 0.010174 0.042119
0.007303 0.020100 0.040294
-0.002702 -0.015667 0.048779
0.007171 -0.003728 0.046224
0.003076 0.053730 0.049199
0.014148 0.063953 0.044586
0.001132 0.032438 0.046229
0.013198 0.040280 0.041408
-0.023183 -0.068288 0.071467
-0.018288 -0.056485 0.059136
-0.016083 -0.094819 0.078649
-0.013681 -0.081163 0.070423
-0.024923 -0.016965 0.049825
-0.014760 -0.001619 0.045616
-0.022774 -0.039903 0.056999
-0.012263 -0.028810 0.050417
0.000528 0.367766 0.037534
0.011315 0.382558 0.035195
-0.000540 0.347041 0.026370
0.011747 0.358311 0.026957
-0.005266 0.429569 0.012571
0.010377 0.438710 0.004466
-0.000059 0.411180 0.021140
0.012149 0.419933 0.013946
-0.012915 -0.301553 0.045034
-0.015280 -0.270947 0.072209
-0.015617 -0.316086 0.026332
-0.012500 -0.282369 0.054311
-0.004695 -0.241914 0.085427
-0.002872 -0.228552 0.092544
-0.003819 -0.270618 0.046490
-0.005345 -0.251978 0.071728
-0.059580 0.278921 -0.090421
-0.042530 0.288170 -0.091479
-0.058291 0.261666 -0.097971
-0.043771 0.270415 -0.098847
-0.048218 0.311003 -0.071383
-0.032211 0.317618 -0.076954
-0.051872 0.297354 -0.079898
-0.032607 0.303709 -0.086200
-0.094753 0.069746 -0.014727
-0.092072 0.081162 -0.022168
-0.092178 0.048183 -0.005346
-0.089511 0.058531 -0.018172
-0.093932 0.125016 -0.017947
-0.094280 0.135437 -0.026708
-0.093099 0.097748 -0.019561
-0.090634 0.113324 -0.026203
0.155305 -0.010619 0.061797
0.157770 -0.012821 0.035023
0.181064 -0.043590 0.079240
0.189718 -0.038769 0.050227
0.185666 -0.002274 0.032908
0.192574 -0.002936 0.007181
0.219199 -0.037282 0.046599
0.217756 -0.033188 0.017851
-0.052244 -0.459823 -0.044634
-0.031168 -0.447653 -0.052952
-0.042242 -0.466528 -0.021702
-0.034580 -0.459428 -0.037039
-0.052119 -0.430367 -0.052391
-0.043190 -0.386847 -0.038050
-0.048730 -0.447516 -0.048482
-0.035803 -0.418729 -0.052800
0.088007 0.250015 -0.105776
0.096025 0.258806 -0.105529
0.094909 0.228376 -0.103700
0.101197 0.242056 -0.100132
0.111547 0.204337 -0.095994
0.116056 0.221411 -0.095338
0.110370 0.170250 -0.096306
0.116650 0.188632 -0.100359
-0.124262 0.206440 -0.038909
-0.121439 0.223632 -0.047248
-0.119791 0.188965 -0.045510
-0.118638 0.203718 -0.055242
-0.128324 0.238100 -0.052587
-0.125631 0.251504 -0.061309
-0.124675 0.217454 -0.059431
-0.119220 0.231233 -0.067773
0.051209 0.011684 0.025703
0.057621 0.024381 0.013482
0.058464 -0.009400 0.033990
0.063867 0.002554 0.022736
0.045186 0.045937 0.029448
0.055182 0.058459 0.024401
0.047297 0.029348 0.023895
0.055877 0.042367 0.014208
-0.015963 0.400061 -0.077266
-0.014556 0.413173 -0.086641
-0.013225 0.372443 -0.070294
-0.009907 0.387862 -0.080944
-0.011506 0.448818 -0.074745
0.000528 0.460082 -0.072682
-0.011068 0.428421 -0.083601
-0.004989 0.443370 -0.084564
0.049697 -0.440633 -0.045707
0.053518 -0.394908 -0.025833
0.047557 -0.441388 -0.009138
0.045577 -0.412355 0.001581
0.045493 -0.396941 -0.048361
0.047446 -0.335615 -0.020313
0.047622 -0.415536 -0.044310
0.053260 -0.361849 -0.015837
0.022136 0.024922 0.038303
0.033784 0.035091 0.032498
0.021654 0.004187 0.041836
0.033921 0.014452 0.033844
0.026721 0.071012 0.045804
0.036443 0.081612 0.038563
0.026066 0.048977 0.042140
0.037741 0.057922 0.038245
-0.065502 0.061697 0.019678
-0.061329 0.076299 0.021493
-0.069797 0.031704 0.021465
-0.065676 0.047767 0.016557
-0.064098 0.114133 0.017958
-0.061470 0.127318 0.021450
-0.064925 0.089330 0.020517
-0.058919 0.102223 0.024643
0.030582 -0.146738 0.000312
0.036836 -0.143296 -0.011552
0.034369 -0.172753 0.021506
0.035305 -0.161262 0.008128
0.015933 -0.093213 -0.042956
0.019914 -0.084177 -0.056514
0.021525 -0.118077 -0.024400
0.023120 -0.105767 -0.039570
-0.043520 0.427739 0.002299
-0.041581 0.438507 -0.008562
-0.037909 0.397689 0.014714
-0.034411 0.413874 0.007533
-0.027161 0.471664 -0.037964
-0.010501 0.480688 -0.037273
-0.027174 0.465798 -0.010761
-0.013055 0.474589 -0.016057
0.167233 0.005568 0.019712
0.167540 0.003222 -0.005612
0.184834 -0.020031 0.027895
0.189729 -0.018760 0.004490
0.173642 0.046378 -0.009980
0.175061 0.052313 -0.034900
0.186526 0.018229 0.007301
0.190783 0.021066 -0.015441
-0.070168 -0.146643 0.020431
-0.067478 -0.138082 0.006529
-0.064525 -0.169570 0.041352
-0.060840 -0.158750 0.025929
-0.082339 -0.106509 -0.007229
-0.077739 -0.098744 -0.023653
-0.078148 -0.125413 0.006478
-0.070708 -0.118123 -0.008926
0.028092 0.121356 0.039761
0.035530 0.135539 0.035549
0.029769 0.097408 0.044419
0.038899 0.109901 0.037497
0.028571 0.177040 0.025085
0.037307 0.188573 0.018201
0.028563 0.150648 0.030734
0.036639 0.165215 0.025977
0.034029 0.141513 -0.107362
0.043271 0.154192 -0.107820
0.035583 0.115643 -0.102264
0.043482 0.130518 -0.101396
0.050394 0.187729 -0.116647
0.060254 0.197039 -0.113512
0.045311 0.166461 -0.113501
0.056960 0.177078 -0.111247
-0.103161 0.216670 0.023935
-0.088060 0.225795 0.023836
-0.106896 0.187161 0.027464
-0.086837 0.203863 0.025196
-0.082958 0.293489 -0.001127
-0.066788 0.299477 -0.010302
-0.084697 0.273341 0.017141
-0.070850 0.282183 0.005312
-0.157483 0.098906 0.023681
-0.146999 0.103770 0.005779
-0.121516 0.090400 0.030992
-0.121345 0.092217 0.008266
-0.156111 0.118119 0.013137
-0.147979 0.124401 -0.004267
-0.126940 0.111403 0.016134
-0.120585 0.119021 -0.001239
-0.038061 -0.194427 0.142596
-0.038172 -0.184481 0.124202
-0.043103 -0.218949 0.136101
-0.046805 -0.206449 0.129557
-0.042469 -0.153185 0.124996
-0.049788 -0.142760 0.109936
-0.043233 -0.171399 0.135395
-0.052310 -0.163347 0.120294
-0.099144 0.144559 -0.038842
-0.100901 0.154937 -0.048345
-0.095077 0.123088 -0.036786
-0.091521 0.133529 -0.046334
-0.106843 0.185652 -0.047971
-0.109550 0.197086 -0.058586
-0.104978 0.168968 -0.049610
-0.104484 0.180962 -0.062101
-0.054549 -0.189323 0.143328
-0.065320 -0.181626 0.133947
-0.061873 -0.220501 0.138993
-0.061902 -0.205327 0.139838
-0.061409 -0.146989 0.120869
-0.069017 -0.134576 0.108077
-0.060259 -0.171213 0.130612
-0.065752 -0.159793 0.121808
-0.090677 0.085390 -0.059155
-0.085564 0.097337 -0.068846
-0.090927 0.067445 -0.061115
-0.083994 0.079153 -0.070666
-0.096910 0.128948 -0.056753
-0.093004 0.139009 -0.069790
-0.090378 0.109316 -0.060261
-0.090516 0.120839 -0.068916
0.082829 0.116398 -0.017970
0.090353 0.128238 -0.028728
0.085382 0.098592 -0.029239
0.088098 0.110388 -0.033462
0.088773 0.180003 -0.036751
0.091468 0.190049 -0.045520
0.089773 0.161675 -0.035215
0.096395 0.173023 -0.042170
0.105347 -0.084287 0.005767
0.106423 -0.071017 -0.000056
0.103258 -0.105979 0.028779
0.106031 -0.095147 0.017072
0.108555 -0.029565 -0.017195
0.107440 -0.017056 -0.027376
0.106205 -0.057910 -0.007267
0.106318 -0.047017 -0.014927
0.003079 0.198545 0.025135
0.012963 0.209804 0.020648
0.007802 0.176724 0.028116
0.016690 0.189410 0.024657
-0.004092 0.238164 0.015274
0.004740 0.250077 0.011023
0.000339 0.219686 0.016663
0.011304 0.229499 0.010382
0.068090 0.035681 0.007139
0.069805 0.045808 -0.001957
0.070081 0.016081 0.013829
0.073982 0.025683 0.001462
0.063195 0.074298 0.019258
0.065111 0.089026 0.011583
0.066226 0.058009 0.010929
0.067814 0.072178 0.004195
0.030738 0.399358 0.015889
0.039341 0.406405 0.001395
0.031613 0.371718 0.018159
0.037811 0.379881 0.002495
0.023381 0.450081 0.005456
0.029041 0.454073 -0.011757
0.027754 0.423403 0.011258
0.034627 0.433988 -0.003051
-0.073604 0.181327 0.011258
-0.070520 0.194953 0.013411
-0.066744 0.156803 0.015563
-0.063263 0.171429 0.018471
-0.077003 0.232663 0.018233
-0.062484 0.248150 0.016209
-0.073134 0.209657 0.020449
-0.065593 0.223151 0.014270
0.007428 0.106162 0.047904
0.016443 0.119150 0.044558
0.007773 0.082153 0.048410
0.017536 0.094344 0.044440
0.008365 0.151294 0.033919
0.016830 0.163717 0.030995
0.010408 0.132198 0.040287
0.020333 0.143279 0.037443
0.110434 0.270073 -0.089416
0.123320 0.276057 -0.076836
0.127489 0.239677 -0.087800
0.129783 0.250350 -0.070165
0.131126 0.226810 -0.065542
0.128400 0.239262 -0.053887
0.140605 0.196174 -0.067488
0.134810 0.214508 -0.067756
-0.031969 -0.092009 0.093813
-0.032108 -0.079225 0.084024
-0.032514 -0.124086 0.111597
-0.034006 -0.107020 0.101223
-0.043900 -0.041469 0.063555
-0.036696 -0.030492 0.055584
-0.039968 -0.066121 0.079443
-0.035045 -0.053238 0.068942
-0.090894 0.279906 -0.079455
-0.074288 0.288375 -0.082782
-0.092252 0.264737 -0.085158
-0.077284 0.273679 -0.088801
-0.081958 0.306746 -0.064437
-0.060826 0.313080 -0.065347
-0.088259 0.293458 -0.071178
-0.067736 0.301789 -0.076685
0.018472 0.326778 -0.008493
0.022267 0.340480 -0.015409
0.024329 0.306969 -0.013419
0.026868 0.317943 -0.025267
0.032514 0.393134 -0.003976
0.038369 0.404131 -0.016869
0.033407 0.368625 -0.009068
0.032504 0.380994 -0.019989
-0.084508 -0.011228 -0.085610
-0.075499 0.000831 -0.096272
-0.085670 -0.032016 -0.080667
-0.076449 -0.021440 -0.092880
-0.078925 0.028403 -0.083033
-0.067514 0.042171 -0.092105
-0.083332 0.009387 -0.086035
-0.072711 0.022363 -0.095665
0.069207 -0.093849 0.080754
0.071635 -0.079407 0.071388
0.065180 -0.124269 0.096360
0.066006 -0.107683 0.086851
0.065361 -0.039709 0.047812
0.070991 -0.026515 0.038117
0.070799 -0.064451 0.063429
0.074074 -0.051588 0.052860
-0.045401 0.370038 -0.039059
-0.046480 0.378918 -0.053135
-0.048269 0.347962 -0.034573
-0.042256 0.358459 -0.046201
-0.051008 0.431348 -0.057236
-0.046848 0.442853 -0.071118
-0.051005 0.405528 -0.053502
-0.047629 0.416332 -0.068183
-0.117569 0.251717 0.010461
-0.102427 0.262103 0.004763
-0.112311 0.232095 0.016259
-0.102965 0.244768 0.011345
-0.115091 0.287154 0.007635
-0.100743 0.295841 0.000374
-0.108555 0.271432 0.016106
-0.094911 0.282010 0.008689
-0.030150 0.223297 -0.112449
-0.016073 0.233194 -0.114946
-0.025515 0.204351 -0.112673
-0.014026 0.216650 -0.116426
-0.030034 0.259428 -0.104810
-0.014640 0.267665 -0.108268
-0.028612 0.242167 -0.109207
-0.013161 0.249828 -0.111895
-0.152308 0.094601 0.059918
-0.158982 0.100284 0.041139
-0.135518 0.079749 0.072694
-0.126182 0.087097 0.052972
-0.147479 0.123977 0.043515
-0.147312 0.134444 0.026272
-0.134578 0.105344 0.052824
-0.122232 0.120020 0.038130
0.024707 -0.173101 0.055488
0.026170 -0.160505 0.044656
0.026157 -0.206076 0.082013
0.026204 -0.193388 0.070052
0.001687 -0.106603 0.010511
0.009981 -0.098139 -0.001518
0.013663 -0.128172 0.018627
0.011671 -0.117392 0.002362
-0.139714 0.265250 -0.029448
-0.135766 0.273296 -0.041332
-0.136646 0.245350 -0.040043
-0.130691 0.259604 -0.050052
-0.128368 0.288741 -0.029169
-0.113562 0.301513 -0.036001
-0.128317 0.276316 -0.032999
-0.123003 0.289817 -0.042458
-0.133464 0.234792 0.010179
-0.135336 0.242055 -0.005202
-0.135196 0.200676 0.003518
-0.131797 0.215108 -0.006867
-0.135524 0.277922 -0.013229
-0.126204 0.295424 -0.014693
-0.129746 0.264974 0.003899
-0.123191 0.275855 -0.002833
0.019303 -0.072232 0.047787
0.028451 -0.058738 0.046459
0.023597 -0.100470 0.057818
0.029346 -0.086996 0.057851
0.017334 -0.019193 0.048172
0.027364 -0.008151 0.040145
0.014797 -0.048619 0.051537
0.023414 -0.035337 0.049616
-0.116780 0.156026 0.013825
-0.104613 0.168514 0.004743
-0.110230 0.135087 0.013437
-0.104981 0.150344 0.003203
-0.120878 0.199056 0.003571
-0.114318 0.217085 0.002444
-0.109821 0.184442 0.000929
-0.102955 0.200787 -0.005828
0.043226 -0.466188 0.030123
0.040019 -0.453478 0.014886
0.044297 -0.462418 0.055530
0.054920 -0.451463 0.043036
0.034947 -0.432896 0.017513
0.047867 -0.407012 0.023038
0.038694 -0.447447 0.038818
0.048214 -0.430099 0.033119
0.054951 0.050724 -0.094177
0.060027 0.065285 -0.093590
0.060777 0.030412 -0.099873
0.068187 0.043023 -0.093707
0.037858 0.093467 -0.097514
0.046137 0.105069 -0.096434
0.044787 0.071293 -0.097031
0.050480 0.083397 -0.094306
0.045380 0.093814 0.033375
0.052260 0.103986 0.025532
0.046993 0.071738 0.031944
0.053424 0.084889 0.024780
0.043590 0.150980 0.026744
0.052959 0.161665 0.016872
0.046586 0.122689 0.027962
0.049353 0.139598 0.024253
-0.141175 0.149755 0.034361
-0.142979 0.159667 0.017093
-0.128527 0.140596 0.040386
-0.115303 0.156517 0.032585
-0.126355 0.204644 0.019239
-0.126266 0.221539 0.011390
-0.127161 0.167019 0.030149
-0.129612 0.181829 0.015174
-0.014695 -0.171115 0.111343
-0.019541 -0.156291 0.102437
-0.020819 -0.200075 0.119295
-0.021157 -0.187537 0.111077
-0.010910 -0.123593 0.082107
-0.008873 -0.116244 0.063271
-0.009482 -0.159109 0.092461
-0.011985 -0.142637 0.084274
0.048704 -0.190959 0.123037
0.050183 -0.175553 0.117278
0.050924 -0.216203 0.131740
0.053590 -0.202306 0.130290
0.049959 -0.130493 0.096649
0.054298 -0.115453 0.090953
0.048974 -0.156073 0.106257
0.054480 -0.142617 0.099905
0.072358 0.151675 -0.002134
0.076293 0.163968 -0.014639
0.073012 0.130819 -0.001986
0.076642 0.143588 -0.013356
0.082994 0.197236 -0.015876
0.086338 0.208863 -0.024486
0.079409 0.179250 -0.017833
0.084972 0.191241 -0.029189
-0.070915 -0.208430 0.124884
-0.074979 -0.197843 0.112267
-0.074688 -0.228186 0.120543
-0.075606 -0.218885 0.109009
-0.074976 -0.166140 0.112225
-0.082605 -0.158379 0.098511
-0.074694 -0.186218 0.120029
-0.079110 -0.177084 0.105128
0.027338 0.198454 -0.121674
0.042449 0.208049 -0.119893
0.032643 0.172862 -0.115088
0.040103 0.188132 -0.119529
0.058884 0.223431 -0.120094
0.072054 0.232605 -0.116920
0.057626 0.207796 -0.120094
0.069582 0.216277 -0.118667
0.037464 -0.096318 0.071999
0.043868 -0.082641 0.066964
0.038478 -0.125071 0.087091
0.043933 -0.108929 0.082097
0.035330 -0.045621 0.050643
0.041603 -0.031674 0.043335
0.034765 -0.070913 0.058950
0.043655 -0.057693 0.053473
0.054254 0.116656 -0.095117
0.058908 0.130699 -0.093884
0.059056 0.094792 -0.090194
0.064300 0.105602 -0.088469
0.056512 0.159323 -0.105531
0.073655 0.168731 -0.099627
0.055779 0.143368 -0.102259
0.068158 0.154766 -0.098192
-0.096860 -0.050266 0.044292
-0.101293 -0.046102 0.027914
-0.093527 -0.066995 0.055159
-0.098041 -0.062950 0.038235
-0.096090 -0.004681 0.021954
-0.097151 0.005848 0.009799
-0.096110 -0.028370 0.035113
-0.100402 -0.021083 0.019821
0.086065 0.157584 -0.018664
0.085450 0.170389 -0.025801
0.082122 0.134977 -0.019473
0.090011 0.147855 -0.026378
0.096154 0.213918 -0.025174
0.102578 0.223200 -0.036926
0.093574 0.201474 -0.035428
0.099814 0.210500 -0.042986
0.084578 -0.297401 0.004289
0.088956 -0.264869 0.030681
0.083817 -0.320413 -0.000053
0.088170 -0.275091 0.023669
0.074911 -0.244826 0.030977
0.079388 -0.231504 0.046802
0.084173 -0.274720 0.012248
0.084756 -0.246892 0.040505
-0.062462 0.011431 -0.097198
-0.052561 0.024705 -0.102643
-0.066001 -0.010755 -0.099473
-0.053875 0.001843 -0.105323
-0.055762 0.062665 -0.087159
-0.048701 0.077871 -0.089020
-0.055502 0.036861 -0.092261
-0.048875 0.051455 -0.095150
0.086885 0.138465 -0.061574
0.086392 0.152541 -0.070080
0.084799 0.121679 -0.065722
0.083298 0.134246 -0.072776
0.102514 0.186213 -0.052393
0.106700 0.196378 -0.061716
0.098059 0.175132 -0.058411
0.099213 0.184921 -0.069016
-0.075102 -0.164595 0.057777
-0.074691 -0.157305 0.042646
-0.068971 -0.187287 0.073517
-0.066952 -0.179020 0.058558
-0.089408 -0.127255 0.036446
-0.086225 -0.123691 0.019912
-0.082539 -0.144731 0.043810
-0.079416 -0.138971 0.028604
0.038667 -0.180617 0.107907
0.040015 -0.166219 0.100236
0.039639 -0.208705 0.121180
0.036064 -0.195202 0.112596
0.027335 -0.128102 0.074236
0.032344 -0.112199 0.069513
0.032003 -0.153522 0.091931
0.035519 -0.140297 0.085190
-0.043316 -0.009384 -0.104501
-0.031702 0.003219 -0.109982
-0.045133 -0.031243 -0.103793
-0.032456 -0.020863 -0.109592
-0.040473 0.036299 -0.095591
-0.031149 0.050801 -0.097289
-0.042050 0.013514 -0.102572
-0.031613 0.025054 -0.104301
0.127909 0.099040 -0.043116
0.127071 0.105437 -0.062745
0.137093 0.074963 -0.030146
0.137151 0.083706 -0.051533
0.136634 0.130838 -0.045887
0.143207 0.147388 -0.053702
0.145716 0.109162 -0.036082
0.156118 0.122529 -0.052352
0.058732 0.135687 0.016855
0.062349 0.147541 0.010017
0.060630 0.110953 0.019156
0.061882 0.124017 0.011499
0.049081 0.196149 0.020308
0.057201 0.207592 0.010873
0.049049 0.175275 0.021102
0.057316 0.186531 0.012701
-0.050033 -0.464925 0.057376
-0.035210 -0.452204 0.044378
-0.049328 -0.472063 0.075221
-0.035057 -0.462523 0.061340
-0.044218 -0.428911 0.042833
-0.048209 -0.396106 0.043231
-0.049979 -0.442795 0.042570
-0.044160 -0.421246 0.029484
-0.076148 0.065602 -0.075167
-0.066715 0.078137 -0.082039
-0.077573 0.046848 -0.078766
-0.068935 0.058955 -0.086816
-0.077947 0.108552 -0.078418
-0.070532 0.118516 -0.088322
-0.074137 0.090575 -0.079339
-0.066003 0.100905 -0.088121
-0.019355 0.289898 -0.094124
-0.001662 0.297939 -0.096023
-0.020350 0.275238 -0.100185
-0.008484 0.284020 -0.104091
-0.015243 0.327349 -0.082937
0.003511 0.334561 -0.086820
-0.014541 0.307373 -0.088604
-0.000201 0.317600 -0.091243
-0.083509 0.143989 -0.076742
-0.079442 0.155722 -0.087789
-0.078847 0.125131 -0.075062
-0.075478 0.137399 -0.086312
-0.092343 0.186891 -0.081157
-0.087724 0.196662 -0.089942
-0.087413 0.166432 -0.082109
-0.083358 0.176422 -0.090762
0.078684 -0.089635 -0.042284
0.081465 -0.078760 -0.053529
0.079644 -0.112787 -0.020220
0.084183 -0.100643 -0.030520
0.081681 -0.032417 -0.080191
0.083288 -0.017715 -0.080660
0.083471 -0.056678 -0.066464
0.087252 -0.040544 -0.066445
-0.132244 0.195750 -0.017325
-0.135781 0.203437 -0.033211
-0.129601 0.165446 -0.023907
-0.130433 0.177849 -0.034122
-0.143248 0.239066 -0.028836
-0.142494 0.254425 -0.034370
-0.138757 0.218695 -0.033410
-0.136288 0.228011 -0.046967
-0.063357 -0.385359 0.018822
-0.068535 -0.348707 0.049791
-0.061305 -0.401942 0.010846
-0.067987 -0.364473 0.038168
-0.062632 -0.343638 0.038989
-0.066840 -0.318910 0.065680
-0.057678 -0.369365 0.018479
-0.063323 -0.326268 0.051022
-0.085453 0.101852 -0.000850
-0.084843 0.114117 -0.008927
-0.086267 0.075035 -0.002760
-0.082890 0.090003 -0.007880
-0.092161 0.153051 -0.008485
-0.088233 0.166453 -0.012333
-0.085648 0.128487 -0.005196
-0.087551 0.141506 -0.009382
-0.060097 -0.256935 0.035768
-0.052342 -0.239484 0.045805
-0.056023 -0.282791 0.021619
-0.044763 -0.258084 0.038884
-0.052964 -0.202106 0.050350
-0.045329 -0.197166 0.038645
-0.052409 -0.225662 0.052487
-0.043250 -0.215210 0.044785
-0.024598 0.118501 -0.098627
-0.015887 0.134354 -0.100707
-0.019809 0.095327 -0.097068
-0.010839 0.109297 -0.097144
-0.029095 0.175784 -0.106595
-0.018406 0.186874 -0.110609
-0.023297 0.153651 -0.102605
-0.013495 0.166505 -0.105523
-0.016897 -0.061077 -0.087621
-0.003721 -0.055742 -0.098994
-0.014314 -0.072593 -0.074493
-0.001457 -0.068100 -0.085265
-0.019168 -0.028944 -0.108255
-0.009046 -0.016055 -0.112135
-0.018698 -0.046532 -0.100080
-0.006885 -0.037805 -0.107124
0.077047 0.061265 -0.063457
0.083801 0.074458 -0.061075
0.081878 0.042013 -0.068262
0.082778 0.057400 -0.072199
0.076084 0.100925 -0.074982
0.078209 0.112310 -0.071712
0.072799 0.080095 -0.071080
0.080236 0.092066 -0.063807
-0.106439 -0.012594 0.007265
-0.108685 -0.005458 -0.006365
-0.105832 -0.034133 0.014640
-0.107885 -0.028089 -0.001275
-0.095110 0.032298 -0.001725
-0.098793 0.043374 -0.018964
-0.101944 0.013295 -0.002478
-0.101467 0.024668 -0.015820
0.027494 -0.017570 -0.113218
0.038348 -0.004355 -0.114601
0.029132 -0.041151 -0.110337
0.036979 -0.025955 -0.114039
0.020304 0.022462 -0.110092
0.032346 0.036496 -0.111196
0.021771 0.001105 -0.116982
0.033215 0.015044 -0.114575
-0.038897 -0.453810 -0.002632
-0.039938 -0.441868 -0.021614
-0.046045 -0.457988 0.030475
-0.038514 -0.446224 0.015161
-0.030423 -0.369831 -0.018578
-0.021126 -0.312666 0.007099
-0.026083 -0.395298 -0.030410
-0.026845 -0.340560 0.006003
-0.045895 0.093037 -0.093386
-0.034963 0.104814 -0.097238
-0.040294 0.069322 -0.096347
-0.031417 0.083439 -0.095282
-0.046565 0.152469 -0.100498
-0.038106 0.164908 -0.104072
-0.039203 0.126311 -0.096974
-0.032257 0.140034 -0.101776
-0.022802 0.034469 0.041593
-0.009285 0.044396 0.043064
-0.023341 0.011463 0.041147
-0.012911 0.023969 0.039451
-0.015353 0.085639 0.048005
-0.003592 0.095794 0.048814
-0.017378 0.060057 0.047942
-0.004400 0.070253 0.047270
0.086660 -0.059886 0.058075
0.090390 -0.050002 0.045485
0.084355 -0.088403 0.073302
0.085980 -0.075803 0.060721
0.076140 -0.010374 0.028855
0.080129 -0.000629 0.016688
0.081636 -0.037445 0.044068
0.084244 -0.024872 0.032256
0.075053 0.159726 -0.085387
0.083677 0.172046 -0.092118
0.079637 0.143275 -0.079635
0.086116 0.155836 -0.080574
0.084772 0.210060 -0.097067
0.099436 0.217197 -0.097285
0.085585 0.193237 -0.096906
0.096233 0.202674 -0.095458
-0.080820 -0.080335 0.079528
-0.086001 -0.068592 0.069568
-0.078389 -0.105999 0.096781
-0.084540 -0.095712 0.085152
-0.081723 -0.024491 0.047876
-0.083949 -0.011859 0.038429
-0.084985 -0.053367 0.062297
-0.087761 -0.039681 0.051019
0.099268 -0.120328 0.021943
0.098294 -0.109601 0.010712
0.098122 -0.140168 0.043675
0.098956 -0.128838 0.036529
0.099027 -0.073794 -0.016760
0.102160 -0.060335 -0.023143
0.100191 -0.097002 -0.002358
0.101959 -0.084816 -0.011830
0.032205 0.235885 -0.124091
0.046944 0.244816 -0.124656
0.032199 0.218130 -0.123219
0.046985 0.227248 -0.125036
0.059736 0.257397 -0.120581
0.079161 0.268201 -0.117449
0.062763 0.241276 -0.118257
0.078790 0.249890 -0.116935
-0.097626 -0.094964 0.013567
-0.094107 -0.091945 -0.003410
-0.094043 -0.110940 0.026524
-0.089620 -0.108169 0.007638
-0.103571 -0.058146 -0.011880
-0.101256 -0.054577 -0.029188
-0.102013 -0.078091 0.002511
-0.098878 -0.074154 -0.015632
0.056495 -0.289316 -0.003632
0.060024 -0.255001 0.024941
0.055570 -0.308466 -0.010929
0.060099 -0.271033 0.010872
0.038717 -0.208981 0.044390
0.038703 -0.198569 0.036497
0.035821 -0.235131 0.045933
0.042494 -0.223962 0.045970
0.014962 -0.121532 0.057656
0.019516 -0.110303 0.048341
0.017768 -0.144797 0.067113
0.020861 -0.134790 0.057642
-0.005815 -0.081295 0.026923
0.003175 -0.067714 0.019831
0.003771 -0.098658 0.034689
0.011393 -0.083211 0.026661
0.065563 -0.309708 0.064963
0.058795 -0.279955 0.087278
0.063370 -0.327013 0.050233
0.062508 -0.292039 0.074227
0.055314 -0.242680 0.119560
0.053953 -0.228866 0.128292
0.067292 -0.272657 0.094303
0.058131 -0.255689 0.106015
0.053774 -0.068303 0.064378
0.057768 -0.054069 0.055103
0.053474 -0.096037 0.078431
0.057454 -0.082612 0.071492
0.039946 -0.017151 0.042106
0.045653 -0.004079 0.031938
0.051674 -0.040480 0.049955
0.055262 -0.026147 0.039702
-0.045176 -0.317847 0.068878
-0.053476 -0.290606 0.094398
-0.047274 -0.333564 0.059768
-0.060107 -0.309648 0.082727
-0.044062 -0.275638 0.100383
-0.046871 -0.255792 0.120712
-0.041871 -0.299754 0.083584
-0.057048 -0.273047 0.109053
0.101502 -0.014346 -0.048471
0.096749 -0.000888 -0.053809
0.102534 -0.039800 -0.028815
0.102145 -0.028009 -0.038358
0.095325 0.012292 -0.057553
0.093878 0.026027 -0.060948
0.100694 -0.004033 -0.035512
0.099936 0.009679 -0.041242
-0.028571 -0.362932 0.017264
-0.025871 -0.334898 0.052903
-0.030558 -0.378229 0.002248
-0.025766 -0.351459 0.039285
-0.021054 -0.330616 0.036852
-0.018310 -0.300191 0.069012
-0.024515 -0.346390 0.021714
-0.023479 -0.317922 0.053682
-0.082146 -0.124686 0.098012
-0.088482 -0.121693 0.079747
-0.078303 -0.146282 0.106683
-0.085147 -0.139078 0.091171
-0.090919 -0.087149 0.069189
-0.095880 -0.083801 0.053386
-0.090265 -0.108549 0.080555
-0.093277 -0.103141 0.064409
0.086207 0.040448 -0.047710
0.086610 0.052571 -0.055091
0.092762 0.024013 -0.039940
0.097015 0.034463 -0.045572
0.080625 0.075779 -0.038876
0.086144 0.085158 -0.049724
0.082542 0.058735 -0.036792
0.086343 0.068090 -0.047845
-0.042973 0.338160 -0.017738
-0.035855 0.349458 -0.026397
-0.042590 0.319312 -0.015728
-0.033754 0.328941 -0.027097
-0.040674 0.393030 -0.014779
-0.040390 0.407265 -0.024449
-0.045018 0.374512 -0.020966
-0.044385 0.386084 -0.034626
0.069256 0.134708 -0.090154
0.071763 0.148442 -0.090894
0.068850 0.114822 -0.083627
0.076333 0.125638 -0.080504
0.067650 0.187785 -0.108451
0.080322 0.198231 -0.106477
0.063390 0.175495 -0.103818
0.077484 0.182900 -0.099392
0.045966 -0.281821 0.057005
0.036399 -0.258178 0.080987
0.042998 -0.301443 0.045874
0.041145 -0.273140 0.073705
0.033633 -0.210842 0.105823
0.030572 -0.198193 0.095943
0.036736 -0.229557 0.098137
0.030498 -0.215358 0.089203
0.002865 -0.135293 0.031321
-0.000279 -0.122045 0.018402
0.006347 -0.158255 0.037229
0.012514 -0.144943 0.023101
-0.012328 -0.097257 -0.024861
-0.002443 -0.084306 -0.035211
-0.001529 -0.111071 -0.009165
0.000992 -0.092663 -0.016335
0.006212 -0.129382 0.045170
0.013311 -0.117821 0.036104
0.010870 -0.153263 0.052446
0.015499 -0.141828 0.041261
-0.010959 -0.079119 0.000056
-0.005199 -0.070297 -0.012428
-0.002740 -0.089507 0.005975
0.003927 -0.077820 -0.005907
0.087446 0.225680 -0.040169
0.101942 0.235590 -0.052892
0.083473 0.212309 -0.050712
0.093101 0.222768 -0.057626
0.108272 0.251824 -0.030948
0.115842 0.262872 -0.045895
0.106228 0.236240 -0.031642
0.112892 0.242408 -0.046862
-0.065797 -0.012709 0.045422
-0.059072 -0.000063 0.040056
-0.060729 -0.036255 0.065439
-0.058091 -0.022844 0.055746
-0.059007 0.038798 0.024746
-0.048507 0.049765 0.030907
-0.061456 0.014717 0.030261
-0.051066 0.025817 0.030586
0.002333 0.240118 -0.118341
0.017371 0.249095 -0.120750
0.000562 0.221923 -0.119126
0.016274 0.229316 -0.122886
0.002337 0.279254 -0.108006
0.017900 0.286619 -0.110968
0.000371 0.261695 -0.114835
0.016784 0.269760 -0.117477
0.009769 -0.102162 -0.019190
0.011012 -0.089474 -0.030864
0.014538 -0.126040 0.002624
0.016635 -0.112948 -0.010747
-0.017925 -0.079578 -0.057034
-0.005136 -0.071025 -0.067046
-0.009152 -0.076863 -0.040909
0.002340 -0.070265 -0.052183
-0.148472 0.146616 0.003722
-0.141170 0.153102 -0.014167
-0.135260 0.132380 0.007584
-0.127018 0.140989 -0.010703
-0.144020 0.189718 -0.003133
-0.144620 0.204843 -0.020742
-0.139302 0.170413 -0.000430
-0.143306 0.180319 -0.018091
0.067813 -0.408680 -0.035776
0.076235 -0.355232 -0.008363
0.064359 -0.425527 -0.023421
0.070350 -0.383711 -0.000171
0.084275 -0.336049 -0.006050
0.094363 -0.291529 0.018901
0.087632 -0.363302 -0.014275
0.092751 -0.310761 0.010845
0.042240 0.027771 -0.104434
0.049720 0.043216 -0.105526
0.047622 0.006327 -0.107468
0.053965 0.020385 -0.107501
0.025449 0.067407 -0.100215
0.033259 0.081341 -0.099825
0.029408 0.047878 -0.102215
0.039823 0.058332 -0.101373
-0.031532 -0.291124 0.050734
-0.033966 -0.262870 0.073502
-0.034938 -0.304965 0.030645
-0.038701 -0.274039 0.059141
-0.032027 -0.224395 0.103864
-0.029735 -0.207033 0.095132
-0.033035 -0.253984 0.088163
-0.033194 -0.237974 0.090925
0.113928 -0.033529 0.027436
0.119050 -0.030858 0.009144
0.111551 -0.071420 0.037773
0.115557 -0.059746 0.024372
0.106808 -0.005238 -0.001071
0.110163 0.001223 -0.017933
0.107508 -0.030087 0.008942
0.114115 -0.022551 -0.003415
-0.082157 0.216058 -0.097772
-0.070594 0.229483 -0.104541
-0.076341 0.199746 -0.098758
-0.066020 0.210912 -0.105836
-0.086619 0.252650 -0.093020
-0.075725 0.262320 -0.095608
-0.083348 0.234070 -0.095311
-0.073152 0.246640 -0.101270
-0.040028 -0.087432 -0.057940
-0.029405 -0.079818 -0.072108
-0.030934 -0.095950 -0.036610
-0.025927 -0.085618 -0.050766
-0.043392 -0.053735 -0.095090
-0.031982 -0.044429 -0.105788
-0.037914 -0.071522 -0.081743
-0.029468 -0.065113 -0.095032
-0.044276 -0.381911 0.014779
-0.041866 -0.346728 0.042332
-0.043326 -0.403799 0.001236
-0.044240 -0.361736 0.027365
-0.045010 -0.343396 0.015640
-0.044157 -0.297901 0.040741
-0.042121 -0.361422 0.003810
-0.042692 -0.323622 0.025029
-0.032166 0.359687 -0.066371
-0.025821 0.373742 -0.078110
-0.027244 0.338970 -0.072570
-0.016645 0.353251 -0.080206
-0.036186 0.407041 -0.064672
-0.028728 0.419981 -0.073133
-0.035539 0.379982 -0.063562
-0.029399 0.394081 -0.072072
0.083187 -0.258515 0.077666
0.081885 -0.247243 0.081469
0.094473 -0.282530 0.036206
0.086888 -0.253862 0.054233
0.084198 -0.197588 0.100628
0.087578 -0.185878 0.093910
0.080409 -0.226684 0.110952
0.081845 -0.210575 0.104751
-0.096555 0.063537 -0.034663
-0.095584 0.073315 -0.047911
-0.099741 0.045020 -0.037028
-0.097873 0.054764 -0.049947
-0.096265 0.102068 -0.036006
-0.095777 0.114239 -0.047846
-0.094632 0.084537 -0.036083
-0.093834 0.095282 -0.049861
-0.065499 -0.095754 0.100582
-0.067637 -0.087501 0.090160
-0.063422 -0.122860 0.114013
-0.067153 -0.114518 0.103041
-0.072684 -0.048273 0.069662
-0.075291 -0.034062 0.058890
-0.067738 -0.070230 0.085427
-0.071722 -0.059891 0.076946
-0.043009 0.008350 0.036579
-0.033271 0.020732 0.036324
-0.044128 -0.014975 0.047833
-0.032909 -0.003872 0.043499
-0.036864 0.062073 0.040201
-0.026101 0.073742 0.043431
-0.039233 0.036365 0.034940
-0.029670 0.049835 0.039429
-0.022621 -0.178588 0.131941
-0.022455 -0.159546 0.125095
-0.023834 -0.207117 0.140053
-0.024499 -0.189865 0.137565
-0.019609 -0.118276 0.101873
-0.020122 -0.108227 0.088998
-0.019050 -0.141343 0.112879
-0.019105 -0.132154 0.098267
-0.074766 -0.464225 0.022016
-0.067652 -0.449556 0.006488
-0.073188 -0.474865 0.042512
-0.062416 -0.466353 0.028525
-0.049142 -0.394472 -0.022906
-0.050745 -0.321551 0.002375
-0.050900 -0.409521 -0.037878
-0.050500 -0.350961 -0.012930
-0.094800 -0.068988 -0.034054
-0.089420 -0.061767 -0.052051
-0.089692 -0.089031 -0.019323
-0.085523 -0.081537 -0.036176
-0.099170 -0.031203 -0.057042
-0.093987 -0.024819 -0.072832
-0.097752 -0.049228 -0.047436
-0.092343 -0.044052 -0.063908
-0.110323 0.238147 -0.078576
-0.101391 0.249706 -0.084447
-0.104772 0.219433 -0.083778
-0.096582 0.233484 -0.090438
-0.120207 0.268865 -0.060501
-0.106999 0.277864 -0.071469
-0.115952 0.253137 -0.072092
-0.107161 0.264152 -0.077835
-0.025945 -0.288504 0.080292
-0.032331 -0.262544 0.104185
-0.030369 -0.305243 0.065199
-0.029059 -0.275944 0.088263
-0.028245 -0.232029 0.127965
-0.029977 -0.218752 0.129562
-0.025917 -0.253574 0.110543
-0.033304 -0.242686 0.120759
0.020774 -0.164124 0.073486
0.026689 -0.156814 0.060095
0.021051 -0.188371 0.084624
0.023440 -0.178129 0.070790
-0.006165 -0.098960 0.022579
0.003453 -0.086061 0.015500
-0.001655 -0.115522 0.033043
0.010775 -0.107017 0.021578
0.052056 -0.468320 -0.014368
0.053320 -0.463908 -0.027012
0.068164 -0.473674 0.009198
0.059258 -0.467279 -0.004576
0.040068 -0.446117 -0.055922
0.039401 -0.399783 -0.037578
0.055406 -0.446936 -0.027514
0.048179 -0.426258 -0.026027
0.075165 -0.187136 0.041912
0.077639 -0.176686 0.031446
0.074379 -0.213880 0.055968
0.073223 -0.199125 0.049724
0.077684 -0.138234 0.000600
0.080598 -0.124895 -0.008656
0.077559 -0.161840 0.026392
0.079609 -0.150904 0.013986
-0.100452 0.005438 -0.062782
-0.094470 0.016103 -0.075408
-0.099726 -0.012700 -0.063396
-0.094912 -0.004808 -0.077535
-0.093832 0.045464 -0.062578
-0.089182 0.056724 -0.070695
-0.097694 0.026907 -0.064344
-0.090502 0.038179 -0.075675
-0.135284 -0.048827 0.180659
-0.143661 -0.054171 0.161337
-0.126456 -0.065508 0.195411
-0.134261 -0.066253 0.173627
-0.113436 -0.020108 0.153068
-0.115704 -0.020094 0.129218
-0.100539 -0.034454 0.168281
-0.100327 -0.029728 0.146508
0.095649 0.203608 -0.055185
0.103154 0.212496 -0.066842
0.086887 0.190793 -0.067262
0.095800 0.201148 -0.074256
0.115758 0.202813 -0.040669
0.117851 0.220449 -0.049991
0.119224 0.177955 -0.049562
0.120297 0.197477 -0.058885
-0.052350 0.233401 0.004822
-0.039004 0.243507 -0.000120
-0.049831 0.216188 0.007061
-0.037154 0.226930 0.003850
-0.051816 0.292439 -0.021650
-0.042671 0.304984 -0.029045
-0.047528 0.277080 -0.015079
-0.034905 0.286123 -0.020758
-0.036168 -0.466162 0.003515
-0.024610 -0.458808 -0.012954
-0.035065 -0.479549 0.016413
-0.025994 -0.472656 0.001038
-0.030046 -0.436134 -0.040273
-0.035286 -0.385139 -0.022627
-0.026377 -0.432745 -0.016468
-0.028007 -0.411731 -0.014888
-0.158826 -0.062694 0.161792
-0.161626 -0.066824 0.137849
-0.143886 -0.075932 0.183261
-0.154442 -0.080354 0.161182
-0.152874 -0.035347 0.130714
-0.144664 -0.031630 0.112296
-0.136808 -0.048267 0.148646
-0.144720 -0.051355 0.128784
0.090510 -0.194610 0.085890
0.092256 -0.183171 0.079434
0.087552 -0.230313 0.086008
0.087956 -0.209550 0.089989
0.091593 -0.158265 0.033195
0.097114 -0.146789 0.024881
0.086941 -0.177205 0.048025
0.093334 -0.164775 0.041203
-0.018661 0.018832 -0.105916
-0.008586 0.033751 -0.105762
-0.020677 -0.003626 -0.109452
-0.009506 0.011359 -0.111593
-0.023068 0.065517 -0.095513
-0.013955 0.078477 -0.096870
-0.022472 0.037863 -0.101267
-0.013288 0.052093 -0.100278
-0.103713 0.167239 -0.025084
-0.103704 0.177628 -0.034847
-0.096902 0.149931 -0.023097
-0.098738 0.159841 -0.032726
-0.122472 0.204879 -0.021085
-0.117267 0.220562 -0.030595
-0.115252 0.183947 -0.028439
-0.111492 0.198966 -0.034817
0.037968 -0.320510 0.037210
0.035595 -0.282336 0.065061
0.035018 -0.335205 0.026477
0.037873 -0.298883 0.056089
0.029514 -0.246318 0.082552
0.026963 -0.231662 0.083699
0.030494 -0.264651 0.035146
0.027900 -0.243828 0.059611
0.111618 0.128922 -0.087964
0.119759 0.139851 -0.099377
0.126490 0.100600 -0.077827
0.133696 0.115203 -0.087725
0.132697 0.148840 -0.093494
0.131501 0.168588 -0.095277
0.148731 0.124955 -0.078923
0.145961 0.145710 -0.082386
0.002256 0.047131 -0.101319
0.013206 0.060358 -0.103608
0.003081 0.026093 -0.108535
0.012930 0.040206 -0.107462
-0.002711 0.088495 -0.098777
0.005136 0.103534 -0.099650
-0.001666 0.066175 -0.098402
0.007638 0.078129 -0.099117
0.039197 -0.399611 -0.019049
0.050563 -0.359812 0.008177
0.037167 -0.419248 -0.017445
0.048619 -0.379320 0.013760
0.033919 -0.347906 -0.023771
0.040078 -0.293302 -0.003564
0.041472 -0.377829 -0.035616
0.039461 -0.316073 -0.013820
0.087353 0.184478 -0.082876
0.098919 0.193175 -0.085332
0.086481 0.169452 -0.075872
0.092682 0.179512 -0.091590
0.079368 0.226080 -0.112661
0.085113 0.238471 -0.107131
0.072314 0.205723 -0.110348
0.084876 0.213799 -0.108426
0.059638 -0.074782 -0.076225
0.064707 -0.060270 -0.086777
0.066621 -0.088831 -0.053969
0.072737 -0.076505 -0.065310
0.047399 -0.026422 -0.105917
0.053332 -0.011542 -0.108374
0.053383 -0.049435 -0.097737
0.059339 -0.033684 -0.102104
-0.065140 -0.264271 0.078048
-0.065592 -0.246826 0.080814
-0.063804 -0.287181 0.037431
-0.063199 -0.263670 0.057433
-0.067192 -0.208604 0.076753
-0.061628 -0.200413 0.065510
-0.062537 -0.235762 0.065759
-0.061536 -0.222567 0.065956
0.097406 -0.034984 0.032003
0.100314 -0.025265 0.018931
0.100380 -0.064800 0.045931
0.102563 -0.053091 0.032494
0.085700 0.010001 0.005045
0.095276 0.016081 -0.007179
0.090904 -0.013103 0.021304
0.095261 -0.006035 0.006604
-0.080967 -0.270879 0.055466
-0.072448 -0.250418 0.052654
-0.066134 -0.301086 0.024680
-0.065908 -0.267596 0.041014
-0.075314 -0.235216 0.094447
-0.071146 -0.222311 0.084392
-0.078875 -0.256477 0.071149
-0.077407 -0.237551 0.069513
0.078512 -0.330423 0.021313
0.083687 -0.296205 0.053971
0.074410 -0.347577 0.010229
0.078482 -0.307244 0.042066
0.093685 -0.294762 0.042431
0.087893 -0.268478 0.063272
0.087489 -0.303618 0.026388
0.092473 -0.270070 0.048079
0.051423 0.309095 -0.102450
0.075086 0.307975 -0.094389
0.042313 0.297320 -0.110645
0.062316 0.301044 -0.104638
0.084067 0.314181 -0.081596
0.100195 0.309097 -0.072784
0.099524 0.295934 -0.087528
0.111273 0.297189 -0.080699
-0.047935 0.406033 -0.005000
-0.045092 0.419463 -0.015668
-0.042345 0.375106 0.003094
-0.040901 0.391676 -0.000149
-0.041630 0.452007 -0.016310
-0.034936 0.462747 -0.028629
-0.049522 0.433350 -0.027313
-0.046824 0.446716 -0.036591
0.111308 0.142918 -0.064717
0.119018 0.156171 -0.081279
0.122643 0.121004 -0.057399
0.128400 0.134329 -0.077395
0.138933 0.167861 -0.079630
0.136450 0.188442 -0.079226
0.150475 0.150412 -0.067270
0.147216 0.167447 -0.064071
-0.110200 0.297840 -0.050153
-0.099131 0.304951 -0.054160
-0.117045 0.283239 -0.057579
-0.101823 0.291460 -0.065163
-0.075321 0.317404 -0.038722
-0.059300 0.326251 -0.042552
-0.088977 0.312629 -0.048582
-0.072217 0.317011 -0.054555
-0.005078 0.146662 -0.104287
0.003887 0.159886 -0.107431
-0.001901 0.121610 -0.102231
0.007251 0.135046 -0.103721
-0.005488 0.198789 -0.115127
0.008064 0.208629 -0.117959
-0.003113 0.176662 -0.111788
0.007424 0.190688 -0.115451
0.032211 0.353630 -0.016056
0.034636 0.368688 -0.026958
0.029855 0.336959 -0.032310
0.025413 0.355142 -0.037693
0.030355 0.420435 -0.018737
0.034891 0.424401 -0.036313
0.031419 0.394008 -0.021872
0.034962 0.402918 -0.036240
0.066637 -0.377876 0.017555
0.078498 -0.344703 0.042047
0.068519 -0.399858 0.003811
0.080396 -0.363158 0.032107
0.086603 -0.350105 0.024265
0.090177 -0.317104 0.054841
0.080790 -0.361231 0.007581
0.091857 -0.331892 0.036298
0.074482 -0.411960 -0.013736
0.086558 -0.368641 0.017022
0.065772 -0.420677 -0.001108
0.078880 -0.387383 0.013742
0.081258 -0.375980 -0.002083
0.091862 -0.322591 0.020632
0.076888 -0.392999 -0.017185
0.089617 -0.338956 0.007494
-0.026062 0.210420 0.026881
-0.015713 0.222028 0.021484
-0.024349 0.191885 0.028583
-0.012931 0.203184 0.027522
-0.031331 0.249548 0.013568
-0.020928 0.259958 0.006550
-0.028582 0.228975 0.019582
-0.019806 0.241495 0.015874
-0.073725 -0.187191 0.094372
-0.078698 -0.178356 0.079499
-0.073673 -0.209991 0.097404
-0.076538 -0.198503 0.087419
-0.085453 -0.149047 0.080660
-0.086393 -0.146922 0.060493
-0.078973 -0.165730 0.085293
-0.083543 -0.161199 0.070980
-0.010391 0.278754 0.003321
-0.000701 0.291202 0.002480
-0.006038 0.263965 0.007279
0.005779 0.274453 0.003032
-0.011964 0.334181 0.004946
-0.002371 0.349002 0.008096
-0.005151 0.310100 0.003354
0.001752 0.326236 0.004919
0.080206 -0.197202 0.063170
0.082645 -0.185303 0.058049
0.087312 -0.224476 0.077679
0.084319 -0.211104 0.071417
0.085948 -0.140796 0.030083
0.089735 -0.129510 0.024059
0.083877 -0.160897 0.051413
0.089580 -0.147807 0.047512
-0.009210 0.413771 0.038254
0.004263 0.424112 0.030273
-0.004860 0.390805 0.039555
0.007537 0.402344 0.035113
-0.007202 0.475889 -0.001963
0.004588 0.477817 -0.016791
-0.004418 0.455581 0.014793
0.008184 0.463931 0.003670
-0.042209 -0.335655 -0.009674
-0.039357 -0.283022 0.015595
-0.047058 -0.369584 -0.019019
-0.043189 -0.301351 0.005668
-0.034143 -0.207851 0.065091
-0.030978 -0.198713 0.049103
-0.034638 -0.243256 0.052213
-0.032296 -0.228828 0.062250
0.044276 -0.234582 0.112757
0.041632 -0.221404 0.112812
0.045681 -0.256544 0.091420
0.040894 -0.243485 0.096958
0.036088 -0.160771 0.079438
0.037068 -0.146884 0.067552
0.032295 -0.185742 0.096537
0.032311 -0.173669 0.086551
-0.098211 0.164807 -0.064033
-0.100047 0.174337 -0.074355
-0.093384 0.148236 -0.060790
-0.094793 0.155226 -0.073736
-0.110428 0.209408 -0.068687
-0.100423 0.224989 -0.076303
-0.104048 0.193077 -0.073559
-0.096579 0.206304 -0.080983
-0.086603 0.022620 0.011413
-0.083280 0.036741 0.007683
-0.079854 0.000844 0.031245
-0.080347 0.011708 0.022284
-0.076026 0.080689 0.010756
-0.074938 0.096601 0.008864
-0.080793 0.050177 0.008050
-0.076729 0.064539 0.005775
0.106168 0.225570 -0.062687
0.115101 0.232290 -0.068469
0.089354 0.212858 -0.075723
0.101269 0.221089 -0.079844
0.114236 0.291615 -0.067286
0.121506 0.288329 -0.056292
0.122014 0.266373 -0.067892
0.126045 0.269052 -0.054846
0.070180 -0.232150 0.121899
0.066924 -0.216942 0.125927
0.071736 -0.257820 0.096973
0.070492 -0.240907 0.108250
0.063546 -0.164295 0.112935
0.064772 -0.148818 0.105916
0.065145 -0.192089 0.123132
0.067612 -0.177482 0.117589
0.024239 0.219968 0.018515
0.032909 0.230185 0.010834
0.027137 0.199378 0.025098
0.038237 0.209296 0.017051
0.014291 0.261245 0.007175
0.024310 0.271588 0.002114
0.020450 0.241608 0.012827
0.028445 0.251925 0.004055
0.042142 -0.250315 0.057732
0.039863 -0.233970 0.071617
0.043130 -0.273326 0.025293
0.046856 -0.249409 0.043121
0.030564 -0.161134 0.030315
0.031990 -0.149883 0.018419
0.030946 -0.187580 0.053235
0.033678 -0.177729 0.039330
-0.070139 -0.294034 0.077835
-0.076388 -0.272942 0.082424
-0.079051 -0.310558 0.057429
-0.082893 -0.283396 0.067581
-0.065928 -0.252782 0.114979
-0.069444 -0.239503 0.113707
-0.068842 -0.266847 0.098118
-0.073217 -0.250951 0.096293
-0.142704 -0.022264 0.144753
-0.142355 -0.022520 0.121969
-0.120437 -0.048058 0.165919
-0.126959 -0.041387 0.139708
-0.143978 -0.001421 0.126860
-0.143308 -0.005027 0.104886
-0.111766 -0.002609 0.136441
-0.112248 -0.002815 0.113680
-0.074817 -0.088119 -0.044356
-0.068177 -0.081408 -0.058858
-0.064904 -0.106931 -0.026360
-0.060117 -0.097185 -0.038514
-0.083904 -0.052305 -0.072981
-0.076594 -0.044663 -0.086088
-0.079867 -0.070632 -0.058720
-0.072849 -0.064389 -0.072855
0.087166 0.237305 -0.009231
0.094844 0.243867 -0.025060
0.086114 0.217446 -0.010921
0.090181 0.229915 -0.022696
0.083620 0.277663 -0.021883
0.095725 0.284488 -0.027841
0.089002 0.258542 -0.014639
0.098373 0.264422 -0.025511
-0.031208 0.440255 -0.080237
-0.021746 0.452793 -0.088331
-0.035407 0.414137 -0.080544
-0.024815 0.428149 -0.090132
-0.020014 0.478689 -0.057717
-0.001702 0.481113 -0.055608
-0.031210 0.460831 -0.071747
-0.017410 0.471703 -0.076588
0.096331 -0.038713 -0.051113
0.095554 -0.024732 -0.055687
0.098344 -0.057597 -0.035259
0.099434 -0.045209 -0.041233
0.082744 -0.005183 -0.081394
0.089871 0.008005 -0.078494
0.090596 -0.022449 -0.069384
0.092755 -0.006401 -0.066796
-0.139060 0.250910 -0.002035
-0.134969 0.260143 -0.015046
-0.140404 0.223211 -0.004654
-0.138621 0.231527 -0.020431
-0.112006 0.307581 -0.021734
-0.095648 0.314563 -0.032744
-0.115290 0.300904 -0.004228
-0.096110 0.305863 -0.016265
0.151531 0.059251 -0.017014
0.150961 0.065217 -0.038118
0.163021 0.029374 0.000155
0.167634 0.035244 -0.023227
0.156995 0.090149 -0.025604
0.166269 0.101679 -0.046975
0.168244 0.067747 -0.018485
0.176018 0.078196 -0.037662
0.109491 0.189252 -0.072722
0.115821 0.201301 -0.077181
0.109733 0.164962 -0.070022
0.118268 0.177457 -0.081175
0.129940 0.189464 -0.047138
0.130711 0.205587 -0.054294
0.127984 0.159494 -0.058806
0.132774 0.176540 -0.063051
0.068554 -0.039934 -0.092201
0.074059 -0.024275 -0.092012
0.071980 -0.061997 -0.074962
